ply
format ascii 1.0
element vertex 666
property double x
property double y
property double z
property uchar red
property uchar green
property uchar blue
end_header
206.5939363744304842 5.7629809713128672 -0.3464034405168461 198 208 209
206.5939363744304842 5.7629809713128672 -0.3464034405168461 198 208 209
12.6285794159473159 145.5962554625282053 -0.3869912785581434 187 197 198
204.7861867761461951 145.6957494057404006 -1.2516572749604584 31 37 33
158.6938510013442851 -40.9989952001611258 -2.2290227799790987 65 56 51
136.1765830245911388 47.3451763270800967 0.8897908039633470 39 41 38
113.1589634562959645 759.3045179348789588 -18.5664568643520198 95 91 90
115.8803471164444261 93.3654803798097959 0.2288381906894434 44 52 54
31.6994395776991382 158.4563296677599453 -0.0674282416959860 213 225 225
145.0465112904376213 92.0967961315411543 1.0308031237000261 27 28 30
27.1347393456919797 118.8651491625377190 0.0082125030250340 211 221 223
26.1973341912899258 51.5389821412061693 1.0269793344334506 193 203 205
140.8113543825628255 51.6576090083248616 0.6180309191842637 184 192 195
65.7804332112468728 11.8172692391400069 0.3519506075070994 208 218 220
76.8157835543359226 120.9061831230298623 0.3849580780290848 185 197 197
76.7297041290965325 120.8081231772903834 0.4442980930675223 185 197 197
61.7709947951438707 116.0741677045425320 0.4758457689146935 188 196 199
26.6692130713934787 75.8468554592819544 0.6084295113734702 29 35 35
101.5235725419134383 115.9257413574179907 0.4512536836309772 42 51 56
17.4418492041391566 145.3251564624484047 -0.2969894363673978 45 47 46
101.3509620344922268 78.8952831132873911 0.5531799317266554 24 30 26
96.9971882679818123 152.9718982134734517 -0.0757614044291485 47 51 54
96.9971882679818123 152.9718982134734517 -0.0757614044291485 47 51 54
76.7468972421164750 61.6625341338335318 0.8492019648673543 183 194 198
111.3581536895010089 138.1624104234614094 -0.0137014693372114 47 50 55
205.7083997679885101 79.1664394254666774 -0.3781679796845925 34 42 44
165.4114575139694239 138.5559426144812960 -0.6692447854882505 39 48 47
110.5305416916244496 26.7750340992647011 0.7098101500436461 208 217 222
11.9228547789812396 141.1081304300028023 -0.5080314424309982 20 24 27
126.0704962894111816 167.4752385005320718 -0.4579383559401985 43 49 49
195.0368542240023544 139.4502090626172048 -1.7161873600520250 41 43 42
51.9514864411374120 92.9222493791079813 0.5290059921581949 46 52 50
22.1153987483702181 123.5881231280955461 0.0863687155439979 23 28 24
23.8290875922340852 16.2431027210429519 0.3177856268169955 185 195 197
36.3181030669045626 3.0426410186696771 -0.2618978088870643 16 20 19
-121.9176345693777961 209.1676977042706653 59.9547553171344205 184 193 190
92.3483486863202785 94.2090812043454093 0.3700312055804296 46 52 52
160.8164776262349278 54.0664862363133736 0.0803343867058578 209 219 221
80.4682321709869939 137.2864376990336837 1.7201785077810696 48 54 52
100.5337155848992694 93.7277401990770329 0.4966981694844032 25 30 34
100.1507432458584077 139.1609357837831737 0.4427123360871467 53 52 50
123.0755736791089561 75.4072462007119384 0.5490056257473180 41 50 49
2.3375367183601474 169.7186505564017125 -2.5605993826464508 34 39 43
123.2225499205889321 75.6329168390159197 0.3041957458431269 41 50 49
93.9289220285379258 110.8603244965310353 -0.3058007377891784 48 52 51
61.6182767086044265 166.6398066833554878 -0.3162371095926607 43 51 53
198.9083602636142132 4.0553817893745157 -0.7182268262788100 30 32 29
72.8463671976827385 68.4815991180982735 0.7513425413561839 40 50 49
66.5082095478187938 155.5201561059896846 0.2610873908157461 195 205 207
138.6800752470583120 68.9311961738390835 -0.1034232963373073 39 47 49
138.2461202785565888 167.8311878036746805 -0.2414310107850874 38 42 45
148.0610409328033654 93.4212360601550245 0.9314307449159989 38 47 46
8.0078773090811151 27.3336056456380021 -0.3558252713800474 190 201 203
41.7413976174157355 86.2072100415716420 0.5340443349611574 187 198 200
196.6128577625891296 151.8388755051084615 -0.6137409223381353 189 197 200
-188.7460845877642726 46.6869069350143775 56.5174414931216660 71 47 35
184.6056383520351574 50.4982539000093382 0.6040985373684900 34 36 35
184.9046769988063659 50.5383716868508017 -0.2881130462293949 34 36 35
138.2667093835978562 36.2624767658397928 -5.3153522136799998 37 38 42
200.6015251630624050 109.5231989019984411 -1.5669176900819672 32 33 37
109.1226960645439448 95.3849309199023168 0.5465648578616518 18 24 22
-116.5652471106897252 191.0473367278201806 60.8351074770627207 138 144 118
263.9058976958868357 120.2019346462012379 -4.1755685475897746 42 35 27
79.1827991517062912 94.6516281315416421 0.6972115506119851 11 19 8
66.3422404821779850 33.9368922354418743 0.5547130783865128 31 33 32
60.6492492547572724 66.7754983856595601 0.7427138718138921 35 44 43
60.5805123858961707 66.5136874848967210 0.8297529328581204 39 39 47
136.2211578641110634 91.8092526264603492 0.4784603914324245 39 48 47
166.0895531169846038 114.1970888873684231 -0.4927700776397529 194 202 204
160.2782126483742218 140.0722622401887634 -0.1133814554593473 187 197 198
31.5062008546158054 14.5884993018631182 0.4509056608991322 23 28 24
160.9013655081267871 54.0411021886781313 0.1480686452235110 191 202 206
46.9572018299805123 35.7725218851425524 0.8899651954168896 31 37 35
35.1824469015285146 33.1661370752242277 1.0161773014256370 19 20 24
31.8246101768824410 24.3835617011492367 0.5795417381199700 193 207 210
96.4135524968006763 19.1050102600530742 0.3576422125009823 192 203 205
46.7878972620219500 3.9490010693872657 0.4015552293630031 17 23 21
16.4002671037845218 27.0342301417067468 0.3826695004459650 190 198 201
-142.3030239866729403 175.2819398171951093 60.9611240135314105 23 23 31
235.6148877505069379 240.7418115679509754 -5.2441790927574141 110 87 53
-119.6137225896718803 196.8855368232929663 60.1500679290632405 33 38 31
262.8895696692098909 180.3075690235714887 -6.0951666473023849 38 28 26
-114.5981365690197720 191.4893239674813685 59.9576570377328082 26 29 20
161.9006891745982557 34.4931212917419998 0.1808675528081407 21 32 36
261.1349800801002061 123.3549136121958441 -2.3356618499317143 110 108 95
57.2446222201596839 4.2603383807707580 1.0268461668360451 32 32 24
-33.7368565682144421 -42.7515643576689257 -7.2018058652257793 70 52 48
-145.9205365580984619 162.9250707560625528 62.5740484488165052 205 206 198
-40.6342034375876651 -39.9751075706810823 -2.5586028735259299 116 118 115
-41.1060431809521418 77.1176659930476660 -4.5866250060265026 123 128 124
238.6818728577206912 -38.5038077838339561 5.3077454985962031 111 96 73
93.8925203859591591 -40.7017549528800231 3.7689822466436209 94 81 73
239.2915615362062169 -39.3085397398321206 -2.6239888276271341 156 129 82
-41.0065323022742660 65.9436173284761082 -4.7269926942355349 132 128 127
-142.1588861254377036 202.5359136244532579 61.0357074405382960 25 26 30
-142.3455958775414842 202.9513510735866930 60.4418886814687824 33 32 30
162.4484395576816098 119.7058046596268213 -0.0862714665326204 206 212 198
236.0588568893774948 -39.6787540618344750 -1.5332791261620222 183 155 115
238.9217688602006717 -40.5311681341029342 -4.3150247540633213 85 72 56
126.6929217147810789 -41.2320816232772316 -2.7237541921682906 46 40 26
-28.9350461409758601 51.7091361172714983 -100.2036532288403663 183 157 108
-194.4597146786254882 178.6554276573882873 17.4766030062570721 180 181 175
72.7521459593568807 -41.1904425272906849 1.7335934995318334 120 104 88
70.1204884811779863 -41.4828785903447965 -0.3221994503172331 94 84 75
-39.0031347781839770 45.7846262786259786 -2.1475139733416646 168 149 109
139.2476052509033764 123.5673562719089773 0.3180334505935076 36 28 25
-141.0327538032217376 197.3718718692205982 60.5900753546946049 134 147 78
64.3250798955901359 -41.9101359076397628 -3.9827645761940649 38 23 16
177.3003235532527810 89.9972614005046410 -0.0800450780353049 228 233 229
-112.4537978040218178 172.3906207338209811 60.2767523850068727 10 17 33
183.5224507527177877 68.2335427437013777 0.1218181090230912 224 233 232
-68.7067722224883823 261.6231672912286399 57.1262473286436574 180 170 160
183.4244299513993042 68.2421053129942976 0.1430772421301471 224 233 232
-42.7466381598707414 31.2123221717068624 34.6510333760609441 130 125 119
-39.8355888762512294 174.4420452086942248 -2.4915319338596897 175 152 102
-39.3249130542424865 19.7831954154138074 -0.4911281832974307 166 147 105
8.5831049136714643 -19.1846642009305555 -1.5073684124706423 152 138 112
-64.2179929147195310 91.8184430913149043 230.6040397093526622 145 146 148
-39.5725037994405469 167.8323822253667004 -2.5640983352853164 163 143 92
241.3119433253958732 -40.2386484464412959 -3.3083995028234483 50 36 25
205.3057213187118180 -39.6346530537307231 -2.4853093473209236 149 123 72
166.4535658180152780 63.4779526772653711 0.2077533924207964 41 46 42
-43.1227085236109957 111.7330666652409263 15.5914996493935458 138 130 128
204.5476734224201891 -40.7437028856670338 -2.1963972489652863 56 46 44
59.3151694635927811 75.0821380805308536 0.8102930989998400 205 218 224
240.4283418849951488 -6.1736428630891851 -1.1216202452693833 121 127 125
240.4563001548795569 -5.8657059535650218 -0.8666288510023247 121 127 125
-115.2138862672658348 203.5188259888911944 60.2203734811455504 26 28 40
29.6461982324056308 97.1181876508979087 0.4483439539081472 4 11 17
196.4445475955295421 19.3819137640434001 -1.3670085455694663 226 234 236
132.8654189397159087 -26.9139857535093086 89.3784991391752612 104 87 71
37.4561128966637469 39.2708457673826103 0.8605477729286429 196 205 200
-38.8910752513741542 -7.5838769239500543 -1.4619430873191439 170 150 115
183.5489756460298452 104.4694754608663914 0.0089702751691737 185 193 196
203.1749431186219397 156.8117038285330409 -1.2361237921370993 35 37 32
-127.1648936834644417 176.5048815857895761 60.4320802461257927 24 27 20
54.8730758757167720 148.6868468665142302 -0.0145601620031778 194 204 206
190.1063468556569944 -60.3157373401317685 -128.2475346868554880 87 80 70
-145.5494926130981241 176.5379830606954101 61.5447848670828890 204 207 198
-145.0680086750448368 176.0952218374977178 61.5187301456261793 204 207 198
203.4540098034154596 5.6133879670060152 -0.7913366365590540 191 202 204
148.9531492412541525 112.3896314853148652 0.2394359497907388 34 42 44
152.2701161799889462 30.2580529019801610 0.1178748370102880 196 202 202
152.2314539838574490 30.2215666825167020 0.3109365074417013 196 202 202
-179.6885348083406200 197.4231528358537844 60.2353030215053238 156 161 157
78.0031981757386461 13.4180517769019421 -0.3128023601147416 188 197 196
264.3997160975313818 6.5022243835114883 -3.9416415386775117 131 109 95
-126.4693168984767482 195.4403069040802166 59.8746050669414558 116 128 46
-126.4693168984767482 195.4403069040802166 59.8746050669414558 116 128 46
61.4108663739167255 145.1450735464875095 0.2128265390787768 214 224 225
184.9751339530328949 160.4069110775342040 -0.6402893809413140 206 216 217
155.7438457705642350 30.3311790258348104 0.1284597446722835 41 43 42
165.4222805025484888 101.0519714855892346 -0.1139487132364727 186 201 198
185.0684531353660986 145.6149567086458489 -0.4845917709312025 211 219 222
165.2960503779086707 96.2424677612386148 -0.0583314711594779 189 194 197
160.2176160252048760 154.7638237686620357 -0.1871301083381007 26 32 30
136.0445916686501846 154.5052654127583480 1.0230272274147565 26 35 32
95.9648875642479311 145.3260912931764324 0.1791313888006816 199 205 203
10.3648847684431296 152.6081046042809248 -0.7570425929220421 15 19 20
51.5361795244928445 140.6738878022083838 0.0674125708787787 189 199 200
185.2246766378634391 106.1155125041355518 -0.1249154453822931 189 199 200
51.5758314825813216 56.2624337395297474 0.8616525464965175 188 197 202
209.6545076247840882 96.1577515264188776 -0.7387073075665374 204 215 217
204.7285119010689698 97.5654129803230461 -0.2937301239730469 39 41 40
16.8956481711254156 79.4977526743859073 1.2330923466810340 30 36 34
56.4633678731192106 52.8723370942672375 0.7687584907811297 38 40 39
26.9658604266195816 21.7381027843743162 0.2459323252986526 25 35 36
17.2123825592515516 21.5408958661163545 0.0868071940769088 202 214 214
106.9904125326933411 155.1536738752074314 0.1815814199083321 35 35 37
75.4961271204624751 148.9181162864668693 -0.1029550402383848 190 200 201
167.9771427666705677 48.6537009264985727 -0.8151691364121599 27 29 26
63.7023254682216375 60.3839856223440776 1.1550286046373266 37 42 38
72.0247152093280079 52.6354393115464916 0.2229503376981971 211 221 223
258.7359910114247441 -12.6078320256911773 -3.4622610902217912 181 189 191
138.0762449172996469 158.8129421714499188 0.6513224337762098 36 42 42
93.6786835808083111 28.6161505623443233 0.5069375450818763 41 45 46
-146.7569243624953401 210.8949134916383628 62.2456943577903630 199 205 201
5.1331812446413965 95.6409853755293256 0.9798952822637088 21 27 27
-181.3607793621464737 210.8010573311966027 58.9077560504732816 186 192 188
-180.9458350516772498 210.6055852171893434 60.4305263689922398 194 200 196
-137.6148307391506762 173.6417498511375186 61.4393438898767883 29 35 25
-137.7505349466138114 173.6493908124517134 61.3094932515760576 29 35 25
85.0057598371333114 181.8872407333589365 0.1977184470780149 199 207 210
-117.5634266262700152 194.8800334347522494 60.8500186972037440 92 94 57
-41.6755990325978019 135.5674765044238939 -4.2870422722321671 128 128 126
11.1744238361431165 168.4311481354657474 -0.8758575897218561 8 12 13
181.1079562243104419 193.1192682699419834 -1.2949524423227132 143 133 108
-140.9908205604054956 181.2836598078785926 61.3659271855526498 104 123 59
-145.2900618377560704 182.1025236037232844 60.8215910632855525 52 48 81
-145.2900618377560704 182.1025236037232844 60.8215910632855525 52 48 81
-119.6751808688535306 195.7603409294582946 60.5720891395297372 104 120 71
119.1368081546515754 192.5582802502316042 -0.3726036526537487 139 120 88
-145.1784841569470643 179.0811804333134774 60.8899572413777506 50 47 74
-133.1420634258788596 203.5839903615489277 60.5670323986043044 170 184 167
-122.5876760802126171 196.2036814774535003 60.6867221864960271 109 123 72
-146.9709915883712199 179.4496587357749604 61.5246499302985939 49 48 79
76.0300344777772636 -40.7928972745373741 -1.3785678350536770 164 140 94
197.9532338496170496 16.0579712809623381 -0.6498919647946643 190 200 199
184.1004255072910496 23.9692476626443671 -0.1736752434750822 10 13 18
58.0940880583019563 192.0899220266971668 -0.0940651730924738 141 129 103
261.7778863407663152 36.1083919269374931 -3.1469923588112994 196 197 199
-139.0798813575081851 203.8500876491913800 60.3019101004702875 224 228 211
61.4484675341444984 210.5100015469884909 -0.8682088129963347 117 77 26
-123.4568272241060640 185.8250531048666971 60.6564399178621372 26 27 13
-140.4082026050516845 156.0570566843824452 61.7821174457458113 201 209 196
-180.9572680336005419 187.1592639202271471 60.1547197744277611 219 225 221
-39.0827628935737508 20.9960904856480433 -0.9159077025732570 177 156 111
143.5081150706434698 -40.2327390461101899 -1.8890497885738033 174 146 96
264.2670751173037047 17.8236000614408212 -4.0179278787226913 137 121 98
-96.0658199252796408 214.9754243968325227 58.4867016617036910 205 207 193
-102.2369436217565948 215.3982685339885563 58.4465733270733381 235 236 220
-10.5532357783064636 -10.2518896396923740 -0.6901518897274665 139 146 156
-115.1384202594312853 175.8446810460460199 60.6877067434288335 25 35 71
-180.0833452287352827 176.6226941124861582 60.0401431885355947 191 201 190
-4.2450510511763335 -19.0353932083030841 -1.3594056574725613 160 142 120
45.5562833501619195 -33.5063161051117007 -56.7808516394622274 162 137 97
-130.6797971814461050 184.7951467528605178 60.6877325738926388 35 37 24
-41.3744182007294086 230.4818323758817655 5.9275457245490504 165 137 89
-144.4587850145419452 191.8194825118251856 61.1386301177003233 61 60 65
-67.4221563930790495 214.7159226214764089 57.2983758721533789 217 222 218
-137.1467422770357700 185.8205851196377125 60.8677467625071955 130 139 86
263.5721184282180047 -10.2657612059341279 -4.1342182599869419 191 196 192
-87.2803882811280403 214.1727605199108666 58.9623733781538277 196 199 182
-134.8256081211889352 180.9411786021416617 60.9969784613712775 37 38 33
-38.9626454854056803 5.4353184437362936 -1.2967394108537256 176 154 115
-137.4208977064831174 167.9803175306579988 61.5903457200261499 197 205 184
111.7938831672623934 -40.7706822652082579 2.1990191303950741 173 146 99
30.1048319280405785 5.3523801046007211 0.0201549375072569 182 191 190
95.8363067457088107 -42.8379147111730418 -3.9131302596683710 124 120 119
117.4904667944626055 25.0535352074220512 0.4567654356392831 186 194 196
117.4904667944626055 25.0535352074220512 0.4567654356392831 186 194 196
-165.1716432977245574 43.6547109211293787 57.7654845202987062 92 76 51
104.8244536105888471 0.7359112426071164 -305.5149472934754158 165 143 96
24.1896712339202011 -41.1768320805129093 -1.2606745568637403 162 138 92
60.3229664218829384 112.2538698914606528 0.4317447176843948 32 31 36
-117.9531036496278205 177.0726031581308462 60.8547501231973129 106 114 54
-142.3946615147824559 197.3608395458567770 61.0784645364772132 186 195 190
152.1884162811675480 114.4266725644990714 -0.5450219364619519 195 204 203
56.9494781821360760 155.4448348950544130 -0.0808370319988025 34 36 35
-180.3593426261788295 200.7907144223425746 60.3248001063868742 102 106 107
-111.7753353127380365 41.0035329501283812 58.4592384851513032 119 98 67
53.8252841408098988 105.8428559901363002 0.4020797501095085 35 39 38
53.8252841408098988 105.8428559901363002 0.4020797501095085 35 39 38
90.7932909837636117 170.7599849578894862 0.2588947219271053 25 31 31
215.0211104986800592 91.3793200786846995 -2.9972858216461451 33 31 36
100.9038065711288255 155.2646329361841140 0.1928105734550403 191 199 201
12.1128176131765759 105.6740116524735811 -0.1561206929813203 187 197 198
140.9333143836321085 76.2673162795167059 0.6465439960098120 189 199 201
207.5666121828209612 72.1970809563148066 -0.6065523467081991 207 219 219
71.4474566322317770 21.2202563169315113 0.4864856565792700 32 34 31
213.6962328955929422 48.4525097750559226 -2.8966903695908481 29 30 32
93.8269942442880307 107.6491197161554680 0.4778950566609535 32 38 36
93.6337547674622499 27.3100072567845942 0.2952018278020958 31 33 30
15.5501758836936101 8.2782532976712542 0.2404947798141738 185 193 196
98.8366745519960403 21.4321366353548086 0.1283670438508087 186 196 198
33.5991985484496851 93.5073302376694215 0.4349831187727679 38 42 45
158.2493428470562264 14.2385641130870972 -1.0175272193679152 186 191 194
210.2182505928420255 15.3811571681930968 -0.8132527817648052 24 29 22
111.4110866121876882 58.9500165484059551 2.4956657343979431 37 53 87
6.1440154869477004 13.8995859258491059 -0.9216448046809033 21 27 25
150.8754551731723836 192.9728737538037819 -1.2409964147712906 165 152 120
262.2066367550000336 41.4166648976138276 -2.1530215527477337 157 141 116
212.9743337848821056 60.8791517335291630 -0.4153312837299273 17 19 14
-70.3588406968426625 156.6314973118510352 59.0373048642572087 192 204 194
31.1797622855862997 10.1390549263108554 0.2148765248282073 15 21 45
127.0197804043116179 82.5382931775575770 0.1885383529572274 28 33 29
-144.8384834252806286 170.7299528038345215 62.1939694233231037 208 215 199
-129.0781774107252033 170.3552034688601395 61.8819001545690455 199 215 205
82.4900575181869868 82.5392884189827214 0.4426106587735719 12 20 7
-15.0130724187098394 1.5380468779184131 -0.2092289262646614 136 146 145
134.5039886370213651 38.0187493124184144 0.4926759089766857 46 50 51
183.6034511181044309 64.6865918352376781 0.1277308936477335 204 214 215
-1.1186002094747922 0.9364338459908180 -0.2382365089259331 212 224 224
-114.8759751631421437 173.7274940635970211 61.8303462549225245 40 42 41
115.7796258391150275 161.1023255777045620 -0.0294191671574267 28 29 33
-14.9542182852912955 -4.0148238561587180 0.0441545991460372 180 191 193
32.9433833837090688 28.2515454018460304 0.7644517694404571 226 236 237
-69.6674132063428715 87.8917757306096519 61.1723757962808676 166 133 98
33.0438253464645300 119.2420292405701474 0.0345115565246011 211 222 218
-135.1232540555349146 202.6078191668430293 63.8779725057857348 211 215 201
45.3409616696383893 0.7076282547581979 0.2028196537567626 8 17 24
81.9356929650088688 82.0534524001717216 0.4784333014147570 28 33 26
-146.2967323572732994 175.9315278623493839 63.0700916559850739 118 125 131
156.1349115814416564 8.6079094051252056 0.0555968716708106 39 47 49
37.4066093954459546 89.8697479720279091 0.4196472312577074 0 5 21
8.2659652076740926 158.9218076569052016 -0.5442639163590836 200 214 215
111.4875374198114883 30.7967164200197487 0.6469682177833327 35 44 43
31.0350398639696863 57.7887774990633005 0.7141220240395545 204 214 213
136.4261880539565652 71.3151402552177700 0.7286313298408165 25 29 32
48.4064065292407903 60.3615983329938572 1.1054857349365756 23 25 22
132.2840400070969906 39.9977941114605287 0.9834715462256339 191 200 205
167.3307634092718956 17.2637130103764065 0.1176518953470777 31 37 35
107.9031520353043589 52.3971788332384918 0.6549301311764399 207 218 220
155.5437587116324494 35.8169254299795341 0.9806350752780043 25 24 29
155.2858970490126467 136.8815174188692083 0.0602145228246439 42 43 45
56.7880999835408318 35.6194758030965772 0.6719802938472227 32 37 33
96.3078988218765062 61.6237698083669727 0.7708356806821494 184 196 194
69.1926894270125104 111.7017565031410413 0.3612501592249300 195 205 204
162.9786258601483837 66.8111180010250081 0.4463132831498769 209 218 217
92.5024074450681439 114.6230699067525478 0.4943492021420263 24 24 24
123.3882204045043238 27.6015887409600822 0.6308835391638599 37 37 37
142.4538244426011318 11.9862703948600888 0.0435101778915649 203 211 213
47.1792189604106369 35.8761485602507832 0.8334971882732933 31 37 35
84.4447579289866894 87.3916230948377972 0.4282337240308551 193 204 206
84.4447579289866894 87.3916230948377972 0.4282337240308551 193 204 206
64.6753368628938716 97.6173647570425089 0.3668159968502036 191 205 205
84.4986963453135189 132.1514932309866310 0.2263608283901169 194 204 206
185.2607790280738129 48.4962442445797279 0.0167483564779597 34 36 35
185.2565832567659925 48.6272017366916955 0.0650775993117378 34 36 35
117.4237476438981957 108.3692960540839181 0.0262465341920609 30 34 35
60.2146640740546104 104.7867946385182449 0.2269517456744724 39 40 45
161.4390247554929658 109.6613904919998106 -0.8707448910748801 194 204 206
187.8207193885399136 120.3073685907312296 -0.4743967515266260 21 29 31
16.7414352949314384 79.4809174585265765 0.9370076909564301 25 30 26
27.2103851003130011 33.7454473829768418 0.1236932031434912 26 31 27
63.9812100610782437 4.0138049259642399 0.3468315621310812 19 28 27
24.3740842222514544 61.7942974716403626 0.8916017212674694 25 34 31
210.8821328652921636 20.3847737843426309 -0.5545171527966382 202 214 214
166.6791849009431132 28.6808074071714998 0.1063766855194635 205 216 218
66.4200329444302611 15.6824971603833845 0.5149176067504002 33 38 42
66.4200329444302611 15.6824971603833845 0.5149176067504002 33 38 42
-140.1461403858344568 205.4719531715950609 60.2423307817040623 35 34 32
79.1711335853737239 8.5402761244148646 0.4380526647219278 38 33 39
79.1711335853737239 8.5402761244148646 0.4380526647219278 38 33 39
53.6995299209394688 192.3847704500712439 -1.5987453286045621 157 137 102
67.3207300009179761 -42.1936735429332970 -3.2497677086835157 43 31 19
261.0108829833455388 165.0779515702074889 -4.2260744386287730 202 206 205
261.1062514480116761 144.5396045968188616 -2.3085255813600050 137 126 106
241.7195001250911730 193.5020435327407995 -2.6063553125097871 143 125 105
24.8167809483648618 192.5040555658252117 -1.3110831668609284 154 145 116
-82.6682242123244606 175.1119219011417556 61.9554770410744737 110 120 51
-156.0475952814508673 215.9550510353344066 60.3927030904521231 161 143 119
221.7087525711048954 193.3944704635952974 -2.4171197778009854 162 149 140
-140.1408718530448141 41.5850331457071718 60.0409011876187719 152 124 84
175.0676300145954372 -41.1819072273921449 -4.4891092130278736 69 64 58
149.1400072924652420 192.7618283633722456 -0.5332605025509471 156 136 109
-188.6932067868234242 86.8618543868327890 59.3234737301229416 67 41 18
-19.6682606707641270 299.2091985417587239 -532.6714635780557501 164 146 108
261.2235638034821363 138.9583995965790564 -4.6590147035591194 98 66 28
263.8798281982657841 -8.9939958822095836 -3.2529987777735565 134 120 107
-188.6906410926775948 73.5588478568871977 59.2030901692346276 77 46 28
104.1997424737873104 -41.5305172416104398 -3.0852816008401303 103 90 74
70.6839378180673066 192.5361521947255596 -1.3488009630285480 165 153 131
173.7530127848772565 193.0340975563952668 -1.3833022469371636 162 152 127
-69.9949061718963748 166.5562352573235216 58.2213939248613386 191 201 193
-116.3874848329505625 193.4854135931225585 60.0863419019635145 137 139 76
8.9531832954307085 192.2034679957054379 -1.6749354293688512 166 146 119
262.2314555315472830 58.9485779235425582 -2.4105009557739367 147 131 108
262.5451379676601391 17.9586691124018927 -3.9074806162474980 197 201 200
261.7925328389954416 -15.3105760902431367 -4.1711766378457051 205 215 216
191.2691125617330670 70.1211661342316859 -0.4574031839758134 35 36 38
148.8996706520769635 104.5187666472649539 1.2507521671779200 204 214 216
18.3767000615895917 156.7549587323749165 -0.5385006657145238 198 208 209
122.0365520458968405 5.5401148829438647 -0.2022584171959875 202 211 216
122.0365520458968405 5.5401148829438647 -0.2022584171959875 202 211 216
75.3459804643196662 106.0926490535049851 0.5130812596431996 45 47 46
7.0973693092687435 110.8618953224370074 -0.2565225345365840 210 215 218
107.7127838800808206 155.5733867886466442 -0.9849404536694160 24 24 26
191.1622670382398894 101.5665804481607637 -0.2512324435546211 19 21 20
181.4298920821677257 62.3685000435921779 -1.3431337681688089 16 20 23
102.3386129524637340 2.0578622054027687 -0.5302255603451991 25 27 24
56.8848334788924674 136.4010775167021734 0.1088228187340339 28 28 30
175.2946610642454175 41.6130013094160205 0.1950395882285896 186 200 203
33.0864680618546885 64.9826203702439216 -2.1782976496795285 19 21 20
-15.5945434645929861 174.0822721312323154 0.2336368248626629 205 216 220
-128.1374009802660510 200.7974022685483249 59.8352354070135277 144 150 88
-186.2595664641615087 214.5855726954565057 -3.2894923998171612 118 130 118
-136.0352111124091152 173.0939788651615174 60.8572575453854085 143 156 84
-131.3229596762373319 183.9968930425721680 60.5051130571504387 133 144 75
-135.9252806179753179 173.1395237789023724 60.7726820234564613 143 156 84
265.5830962080002564 51.8298262084746426 -5.5211292493261572 133 126 116
-140.2404789232305973 203.0755212367780871 60.7780904056854610 27 20 36
-179.9035310425619514 179.7921517951690475 59.2692128110733094 234 241 233
-179.9035310425619514 179.7921517951690475 59.2692128110733094 234 241 233
-181.5774108906518904 194.5970006006297979 59.0332186241919814 113 122 129
-136.0772474481667018 192.9829700693980783 60.3727263083980930 29 31 17
-137.6064826943493244 198.1833127715241574 60.0439069991271168 30 35 5
99.3976179216001299 60.4102445288886187 0.6990393783077437 5 2 0
-139.9469651775060299 181.9784462854560445 61.0546526987568896 28 34 8
-181.4128391322503262 180.4520600475574099 59.2089791311116969 232 239 223
-97.7490130408256874 215.2072424419988010 59.3973054996248422 130 107 75
-144.3198402681327650 192.1401177079735021 60.2799369299055243 48 53 72
-186.5274986100009187 213.4563134938346991 49.7988909511099322 51 53 52
-186.6341096127970332 208.4775400762260347 49.9719227794557170 45 43 46
-105.6963779106474988 215.4938636088013197 59.1785919358424337 151 130 103
-145.7716603819488341 192.2576464927423672 60.3549800999613950 53 51 73
-145.3997330318890988 189.9956611326032601 60.2608693963379807 201 213 193
-145.4647427269407842 188.7357971841319397 60.3626288003934377 211 224 204
-109.5341026973938341 194.2874726306211528 59.5811166660996392 191 205 190
-145.3644202616910661 186.1017553751193248 60.4154015007665066 210 226 199
-145.3942120559889872 184.7366090583931566 60.5307198057538969 196 208 186
-113.0349286221290299 201.5795842887837352 60.0858078643198397 189 202 185
262.9954666887358030 21.8697716410322371 -2.9081166984054279 175 146 104
-187.8957632698789553 212.9822741490419276 38.8513204602518911 39 37 48
-145.7877575146871436 187.3308099405796554 60.5092846592035301 212 220 196
261.7592934900764021 -15.5164196711286024 -2.5813582744070818 200 210 209
-146.2062894027985749 179.9549796881803445 60.8304634719763939 225 237 227
-146.1360466519001307 177.0075258172357451 60.9182856241294033 211 215 198
-144.9497082132484991 177.6729781077380892 60.6324455575407555 53 54 75
-146.2120925774038085 188.0049977864617574 60.4739629415985220 56 60 98
-145.1930121544995416 172.4861033372012855 60.9732629072579400 54 60 84
-144.9948046817701481 172.5322866538745359 60.7429607430943861 54 60 84
-146.2090662651688433 171.8821685072226728 61.0495829342619984 216 221 201
-145.6895779530039476 163.5372154599531882 61.0706429140711720 95 101 117
-146.9427994932159436 169.3340369944587849 60.9928646860407966 221 231 220
-146.1678795239376711 177.7417863938596554 60.7014350205549960 54 57 90
-146.8246568499396858 161.6623579763185887 60.9071317536597903 219 225 213
-116.0630799283247683 184.9824099856935788 59.9770690492793861 120 126 78
-155.1554736249183577 179.0645400346402880 60.8408363579264844 229 237 226
-156.2226143653450094 188.6142735746424819 61.3571964012574043 101 100 108
-156.1481849185273347 188.9988947856411983 60.4946295360797990 97 100 117
-119.7242091790769081 195.7791415442817140 60.5729079906703305 108 117 62
-156.1844663118329777 181.6800142074917233 60.9054291893052735 118 117 125
-156.0968090647614588 178.0248829024404245 60.8811733950691050 221 227 213
-156.0968090647614588 178.0248829024404245 60.8811733950691050 221 227 213
-121.5784462657090472 196.7370524344144371 60.0413833048556214 53 56 49
-188.7176416918458983 193.8116327173522109 28.5321804469965663 149 156 148
-124.1229479183527218 179.6496380176463958 60.6112376386641216 27 31 14
-68.2316035518797861 258.8289162760122508 57.3723918552972236 120 94 61
-124.1229479183527218 179.6496380176463958 60.6112376386641216 27 31 14
-156.7241004179680317 189.7065816394145656 60.3028829633395418 218 229 221
-2.7885966551873596 -42.5194889040157022 -4.7659806101499091 72 59 50
-127.0259372934849438 201.9735032909890720 59.8077415966518373 131 151 80
-68.7251723967514607 180.6269262689969537 59.2480632471313342 90 104 42
-129.7807918065009858 167.9264225697789357 64.4604709606566786 208 218 207
-127.1283130992717361 200.9424504914081524 60.5617359033993594 22 30 17
-130.9578617881027185 173.2169732051839048 62.4436875344426170 131 144 74
-137.0234753096993359 198.8141209877501012 60.0507556292897107 142 153 85
250.4024375865363652 231.4062311462215860 -5.0712631792369240 35 27 16
-117.6055123749445528 193.3626480309141868 61.0890263895319165 119 131 55
-118.6422862571639314 193.5163131724396521 60.0715831605686930 119 131 55
238.4882346329156348 243.1594441753413776 -4.4412198209747578 32 22 13
-120.5132567608370238 196.2847576655786668 60.2911446662412445 119 131 57
-68.6659767910682461 182.2606708891200356 58.1331553806583798 210 220 211
-180.1616161588020191 200.6487826539735693 60.2149046926340290 102 106 107
150.5705109940675186 60.7632537112545634 0.1808343872521202 32 37 31
-187.3971790205139030 177.6094142145886110 41.8519799189759283 67 67 67
-117.6937047138011678 178.2200509655729377 60.4766070765404464 126 140 63
-69.9056416658109470 182.7548512088514485 58.4437330931676016 212 221 216
95.7265601726315225 160.5103133084469107 0.1156472414678692 212 223 227
227.4371154179449093 -20.1210999803762931 -2.2800656044595176 144 108 58
95.7423252638272970 160.3061892429361990 0.2688435874406422 212 223 227
-117.2893424634917210 192.2826483907571742 60.1785347203679422 127 136 53
56.5037408769957494 30.8991373921475301 0.4746867579890031 35 40 43
-139.8575885428148808 164.8025354842162642 61.1973894722163720 218 223 219
28.7550692277503259 120.1358741952045364 -0.2292938060016728 189 201 201
74.9089833161007874 149.9618086920315250 0.0934680507837566 195 205 206
74.9089833161007874 149.9618086920315250 0.0934680507837566 195 205 206
120.8615246229584415 145.3865800646014463 0.0295371720044071 203 208 212
147.9225776003203805 16.8001750869108371 -0.0931363585178955 20 29 24
69.4258541705715260 145.3660283318959614 0.5990494478447475 28 28 26
79.1022225302239121 56.4940964898256297 0.4680121678064354 27 37 36
100.8691110522379120 150.0677363467559644 0.1765145344246316 211 219 221
101.0703627140468654 150.2160576503707432 0.1567303209329843 211 219 221
51.1883159008785853 72.1552765791012547 1.4047775426993314 211 219 222
202.5773167254237990 27.6349443923446216 -0.1783983380212294 209 218 217
2.9502600564432666 125.0729098035031228 -0.8869370738984264 30 35 38
101.7854499015320329 144.9741413579386062 0.1006915389207841 39 49 48
8.4295218693650398 116.0109458111537322 0.1818310671415131 25 24 30
101.6185346079493286 22.6765760771204548 -0.2307353494933119 190 201 203
101.6185346079493286 22.6765760771204548 -0.2307353494933119 190 201 203
22.8213426465848848 57.8655133978727392 0.7197005641368746 35 37 36
22.9326095760785833 58.0726816400057331 0.3955596053250128 35 37 36
63.6602499266540747 25.3439319866057318 -0.0277968823796272 182 192 194
-129.3974407633267560 192.5712250047601799 60.8275954548266355 130 140 51
-140.2245244691011408 195.0009601262867136 61.0097205104468898 23 24 19
-16.8567522094051867 39.2043141523869849 -0.7308571422902889 195 207 207
198.1812999645942739 6.0311543489779993 -0.8312157335214164 20 23 40
-121.1249598231741516 172.3545205838775018 61.0437922320150719 112 131 65
-68.3610690697085914 226.7677601234632334 -5.5756535672424654 138 154 81
-129.7469480528978067 167.4963860555178314 61.4055390203643228 35 30 36
-128.2991498058455875 168.0845540503409552 61.1161301377937534 135 144 125
-128.2991498058455875 168.0845540503409552 61.1161301377937534 135 144 125
96.0656086351576164 13.9755236259143132 0.8430726286357552 18 25 35
-135.9581686055062164 206.2781756642663140 60.9171011538407683 37 43 65
-134.5196419546533662 180.8533434934189188 61.2926946550580141 136 149 80
75.2873276065935926 93.1531591703293600 0.7619693064895908 19 21 34
153.5671722455089991 122.8762440787891848 0.0048441252794321 222 233 235
-138.7827657203838498 187.2383258557331942 60.6208484840718356 43 43 33
-139.8332688215616315 182.1625075300820811 60.6719302755225769 18 25 17
-70.1997989461904410 215.1620106637145398 58.1569273216204792 133 112 83
-67.5829478876261902 150.1659764186602217 58.5644039730722312 42 34 21
-69.6372542361169167 152.7268709117859373 59.5989310571626092 168 143 103
-70.1943717661363280 110.8433699983763177 60.3890105563377872 158 140 102
-188.7601248430825933 70.0880358811102866 58.9970047173685259 67 35 22
24.8049149035760621 109.5306664776111631 -22.7426188211172757 176 148 109
-82.9235508250657034 170.6157696657021745 59.6570551813728045 117 124 47
-94.2359184381856210 215.3564878191108392 57.9761277622501794 225 228 209
-70.6991817633102784 81.9063986288705905 60.8023618644230410 167 147 110
-124.3466703801833688 193.7017173507278471 60.3388770607884695 43 44 36
77.0234528969873367 162.5452690086891039 0.4016834239919481 226 235 234
115.4248946270479053 161.9943199243951142 0.1791410352469915 30 39 36
115.4248946270479053 161.9943199243951142 0.1791410352469915 30 39 36
115.7914391234962324 154.6259631602379159 -0.0219851240035338 29 39 41
115.7914391234962324 154.6259631602379159 -0.0219851240035338 29 39 41
100.6137932866115392 67.3815732043100866 0.7124936354078336 36 42 40
81.2434953092574403 127.3201739822069811 0.5171913749636081 40 41 35
76.2790459981719522 159.1805382830481221 0.3760241480044108 213 225 225
184.9364838076286333 112.1785045873019442 -0.2467221061679066 206 222 219
159.8709469879350991 156.6597734420054735 -0.2029354343474543 37 37 37
96.3078988218765062 61.6237698083669727 0.7708356806821494 184 196 194
-182.8495698226892046 199.5904125513148983 60.1083337445630690 220 226 222
27.1826905228015541 157.3667053581267226 -0.0730401807642885 26 33 43
159.9390639617389809 156.7383639878969461 -0.2824200918934796 37 37 37
165.2194471805955800 101.9864227919618997 -0.1197282326536183 209 221 221
145.0272459963648828 67.3439571228988143 0.3900130734213078 209 219 221
145.0695853726195139 60.6875180278442201 0.3345977347618682 209 220 222
75.7752860648698601 102.3010008044129648 0.5802786604699890 215 223 225
155.1300000041821363 142.0777537313449272 -0.1346467781232161 33 43 35
75.7752860648698601 102.3010008044129648 0.5802786604699890 215 223 225
149.8999518670168527 164.7213307745904842 -0.0735649200843045 35 39 38
-112.2915250172111001 197.6843458124509141 59.8287330126037631 186 191 185
152.5856018834062127 71.4897895070450744 0.2664264288340391 210 222 222
92.7920711023352141 165.5280414697765252 0.1323359775390006 24 30 26
144.9277040785195254 115.7703799392334219 0.0014246814703417 213 223 225
142.4818724280102344 121.3820151401097434 0.1182997869586039 213 223 224
57.9238399979427854 116.1852849077588843 0.2899206136186258 216 224 227
167.4199189424095664 165.3279772750341579 -0.3384118352198955 20 29 28
167.6256552880177537 141.7840021250101472 -0.1985952197924675 26 31 25
137.6165954142439318 111.3915528054340598 0.3648104678364883 31 36 39
167.6256552880177537 141.7840021250101472 -0.1985952197924675 26 31 25
56.6294499155953375 142.3425643169966861 0.3030069274396511 26 35 34
162.6870981239923140 160.7770984294948562 -0.3057714835856606 211 220 225
137.4177540582126369 100.7634562292008837 0.4426329171364403 27 38 34
167.5661245411525329 120.5345983103424032 -0.0145233136913726 24 33 32
157.6387124068020569 166.0463668557464132 -0.3149911158145267 211 221 223
147.6922090275884614 155.5990136386614324 -0.0210019480926220 31 33 32
149.9099964765337916 154.7366724293973732 -0.4159242105489837 38 42 41
139.5329278749696584 57.0806663010751976 0.8345201240887106 31 37 37
5.2300536241518447 135.8938667373402325 -1.3686748495778611 24 28 29
147.7899706463553855 96.6964933300183134 0.3431226526775638 36 34 35
50.9509136213199270 57.2922649296251265 0.9072372998366505 214 222 224
50.9509136213199270 57.2922649296251265 0.9072372998366505 214 222 224
-124.3243072098837843 176.6972180480261443 61.1675594187389038 122 137 54
-113.7155678422385421 203.9164703897433810 60.2833728921153096 46 48 45
8.8389354883960660 76.0850064293635029 -0.2707716088845861 215 226 228
192.6059206368723551 80.6556611098862675 -0.6054686696464269 27 31 34
-131.1878463714074599 175.2959540272640879 61.1792584456331454 125 139 60
4.7584573055042840 81.0532361716450680 -0.3810498234662661 22 28 26
157.4472197667470539 75.8250559086737326 0.4005776998213379 36 38 35
68.1902489494629265 31.0915015335367002 0.4493374727530312 30 34 35
165.0550980092577618 170.1316415950242629 -0.1872223235676067 24 27 32
31.2850620578220315 115.9048487834585615 0.0683441844730207 33 37 36
-127.7963633229883413 184.6447419414832325 60.8933434686912136 122 135 53
-127.7963633229883413 184.6447419414832325 60.8933434686912136 122 135 53
72.6067312699269252 150.7324103501780712 0.7458997180623066 213 225 225
165.6809539692499129 61.0765019627753176 0.2118180742007018 34 34 34
-140.7126521753333463 206.0502918519852358 60.4987669170627811 28 33 37
104.8593623697821045 110.1968194900296822 0.3247166421441484 214 224 225
86.2890170006453445 86.1018717091323680 0.3564527866032138 190 195 198
189.0643948602049136 4.3425593585787743 -0.5258923961447046 18 18 18
55.9267973500594664 70.5166505902022465 0.7540628840329292 215 225 226
86.2890170006453445 86.1018717091323680 0.3564527866032138 190 195 198
101.3366752873220804 101.9197328702539806 0.5306928582347739 214 219 223
-130.0387797207739311 192.8551341917185482 60.1453557114499944 125 139 52
32.7421854984874443 100.4055115376755083 -0.3937621281563781 32 31 37
109.3282314319082502 76.2112713460468711 0.2401804235507250 37 46 41
214.0593650786543094 198.8249647490625875 -164.0845112753339663 24 28 27
41.1183081638975310 130.7664153707916910 0.0076533421424980 215 226 228
15.6504322348733922 70.4417724185762495 -0.6998653917915266 214 225 227
-71.4716007593495277 39.7899587743451306 58.6794080826790676 151 152 147
-70.4898240817614976 77.8994862862787585 61.1083792605128835 165 136 94
76.1145637190344786 23.0457519376679159 0.5448424792217469 204 214 216
76.1145637190344786 23.0457519376679159 0.5448424792217469 204 214 216
137.7334834020570327 100.6337690381380980 0.4985177426910538 31 35 36
110.6172059553882434 144.9135051699399810 0.2806746787768638 206 217 221
95.6427226285091194 159.7174050775695378 0.3185894912832220 210 218 220
93.2441925834202010 150.6408294820045342 0.3838554897122733 35 33 34
93.2441925834202010 150.6408294820045342 0.3838554897122733 35 33 34
93.7543534125350817 105.9283326391021234 0.6308282689733414 32 36 35
140.2091039247679021 105.8642148797404730 0.5425210299489469 27 37 29
140.2091039247679021 105.8642148797404730 0.5425210299489469 27 37 29
-116.0091945652821153 173.1696966933016881 60.8072872685898389 3 10 16
-122.0277171985794951 179.1036652164746954 60.1395549668794231 117 136 72
-120.1909942367703792 177.0488066310801401 60.1830499117457833 8 14 0
-120.0390058787621967 177.1562849642933486 60.6074012227812631 8 14 0
-20.9294847560309485 -293.3186798061203149 -4.6349596597267926 130 129 147
261.6444951996597865 71.0388762347882761 -3.7259025924004141 190 164 115
-128.7991866981516580 175.7173722644462543 60.8494651199322192 128 149 84
-119.0994459773998102 188.8923912090517376 60.1951357032825385 98 111 57
-123.0591385549541741 190.8836176010765371 59.0237509454161469 16 19 12
261.3380812786533625 111.4364326955181212 -4.2611737260311378 204 211 203
-179.9398797427714385 216.1638459485816099 59.1892271070226670 210 211 203
263.3251751300996943 5.4862040826739644 -3.1496396135704514 179 157 118
234.0991160353491694 -17.0313650502241423 -0.3775304341645379 81 62 48
261.0388113475248701 119.8313680736365399 -3.5600024137757811 153 138 115
237.1277218583880426 245.7818047128929777 -5.3658487442899530 145 128 84
179.7145005906466508 29.0351435986932955 -16.1361899538382936 24 27 20
-122.7117539775829442 196.2237723539435876 60.2636736433686480 85 106 47
-126.7475364345637416 190.5422265713127672 60.7002445628768186 14 17 8
-44.8684350958798532 173.1461284711662643 24.8283558333915728 127 128 123
-23.2576802352613932 -19.3747055483617991 -0.1168492075920807 149 133 100
-133.7381146792885147 188.3799679961826712 61.0370513349814843 93 107 48
-28.0843151756735310 -18.1410753519596213 0.3109062473133558 202 212 201
-133.6494511850545166 188.6321342731851587 60.8539618634087844 93 107 48
261.4027141095807565 137.1824337645826688 -5.1279457465169065 186 171 140
-76.2912000388329261 175.0079900333108753 60.1767632586240495 123 129 65
-146.8363244673306269 179.5442418361927253 59.6285571471325966 49 48 46
202.9463375610381490 94.9549628706595712 -0.5836021356691558 44 48 33
260.6563898276438636 183.8176502018658027 -3.8019494814250576 215 219 218
79.2443460884167763 10.8460650468035400 0.3895188760518566 27 29 41
-144.5369603079960825 201.8613021677072084 60.9079674523437120 6 10 9
-135.4814986309818323 200.4512044425445367 59.6888504709557424 4 15 0
132.7398638019303121 82.1738379719352139 0.8688698488878399 211 222 214
-141.2855595371284210 197.4747081605752044 60.2099855223139713 128 129 71
-138.4479510867125498 202.4445702464080910 59.6583455214992853 21 28 20
-138.0633721352846806 201.6637885455979813 60.8114266850353218 177 180 169
217.9942823558348266 -17.2811663610274664 -1.2068592416573618 165 143 106
-37.3069404466498824 261.8466928749787144 -6.2709103499383252 96 79 69
-115.6775968071821552 177.2809908289516443 61.0272099703096131 23 29 19
-118.7314878555202142 176.4266860277138278 59.9037708837789182 99 111 49
-130.0368466190629420 169.9864774369959264 60.9003189143671406 192 199 191
-135.2896834551824270 171.4388451364677053 60.8531900044839560 186 197 189
-143.0636360386032493 164.1649652256128604 61.1144375120526036 17 27 28
186.8796250289826162 143.9868721056441530 -0.6388599261287395 189 201 197
-145.3409210040003643 198.8324839292756394 60.2707754525147124 46 50 79
-122.3327478361083536 175.0607901903767356 61.1481603386211177 20 21 13
-118.7490755643562750 174.0864217258141480 60.8957333325192494 27 28 23
-142.1245985564179932 171.6524027305344191 61.4147019428991570 13 15 14
-133.1151831394151088 190.2221489598441337 58.7709002174363491 31 36 29
-124.3751694898531923 202.8179218508580561 60.3784944598598585 190 195 189
-128.3770081401796972 196.5316293915088295 60.3067410061241134 27 29 24
-140.1543945436675926 187.5646811856950364 61.0076261820641577 18 21 14
8.3677305667526962 161.6134452174224521 -0.4397547017383909 197 211 212
-134.3128599995753802 197.3573041844315128 61.6235648763075403 91 102 36
-156.7985874121528411 178.9813438528236134 61.1997830917314403 86 95 90
-158.2877703791833994 179.4018988104960499 60.8531289551545100 154 164 156
-139.8189389136111913 199.4418240515481386 60.9902521297782627 23 25 22
-134.4319916076555330 207.8990702603682621 60.5061684086580627 184 190 186
-134.3445184553421541 207.8372119411105245 60.6121650998830077 184 190 186
-156.8936738348142796 186.1270700793221806 61.1639245535600722 87 97 96
-180.6235818602425240 194.0833508735623809 60.1491571460513015 63 67 68
126.1423811651748537 1.7674237293600530 -1.9789173574808947 18 24 24
-87.1350202690833697 174.6484274675369761 59.7186475974001496 129 138 57
-115.2410526822318815 186.5946738023257296 60.5152133514201225 25 30 23
155.4885244241797011 96.2060371297749128 0.1796462896026828 205 211 211
71.7430370970119782 35.9348942612113689 0.3966432799783582 22 22 22
47.3513671422586526 105.9001905316221581 0.0779855335916251 21 25 24
182.8025226692986394 34.2627972348859373 0.2910405877974699 25 37 33
199.1705153482683670 97.2598966868659716 -0.7119797516548897 190 201 203
-130.3464301952479332 207.7467994229408248 60.7460015998728053 32 37 31
93.9496648107442383 108.8245430801274551 0.1996855770033192 41 42 44
130.4466293681842615 85.9440512587445369 0.4974831025838188 194 204 206
86.1663442274822415 86.0450562120776823 0.6022688939517158 193 203 205
86.1663442274822415 86.0450562120776823 0.6022688939517158 193 203 205
175.2897969615555098 86.2606682661219963 0.0689162773242379 193 202 207
-134.2787564094461743 161.2377307022008495 60.6319166117719988 218 224 220
255.6287554811219991 188.5433824079288172 -2.8051571813182221 188 196 199
177.1352125385184593 182.3837551281986293 -0.7964685289436018 187 196 201
39.5910606384887060 -6.7799517663789421 5.5288826119447272 203 213 215
131.1062974869043671 182.3536030733442033 -0.8870093549388708 198 206 208
-128.5618612728857784 207.9221474384238491 59.9755587025393453 212 212 200
256.8658837367381125 -16.7641888876615646 -1.5181309470825306 132 112 79
60.5102282682525114 -6.7049504852592694 0.0498915042291219 63 71 92
60.5102282682525114 -6.7049504852592694 0.0498915042291219 63 71 92
262.6776405174319393 -22.6977558559596346 -8.3287912436224794 191 167 121
-174.4615018060034402 215.8142071152951473 59.8120198800055149 143 117 100
31.1099024993882942 -282.7665916741386809 0.9935075368541506 120 124 125
249.6333227352094468 -37.0616659885378397 -19.2216329555934209 180 183 188
-3.2261775043054235 190.9911315705801655 -2.0419124819830827 132 117 94
45.5572948391175458 -280.2850864832416846 -8.5670610194248820 150 152 131
-139.5995752749238079 191.8125137171407744 60.7345256573444203 138 151 72
193.4137870221876767 4.4510689976041604 -0.0372792923604815 11 14 21
72.6227852014051791 -280.7828615154643899 0.1701773704231832 215 217 214
-15.7283434763646000 -2.6236123288098798 -0.1117915192071680 218 228 229
5.2568174378592172 138.6110603852289103 -0.6255990753227365 220 237 231
