ply
format ascii 1.0
element vertex 672
property double x
property double y
property double z
property uchar red
property uchar green
property uchar blue
end_header
-95.9495332934291696 113.2519530495807345 84.2609874727406094 61 65 64
-104.6920543464058966 192.9798272100418046 53.9339955353396476 0 0 4
-140.2685778487476682 211.6983490450621730 57.1852210716466089 52 56 55
159.5126714027748847 -41.1172430039753820 -4.7167222086029179 78 62 49
-137.9835163634756725 208.0817245788762762 56.6425842298409563 56 65 62
-76.3219627408295196 36.8199803549600375 -254.7528546027901939 16 14 17
-128.0482160824767561 68.1370171044783177 28.4683972035760995 0 7 0
85.8852263683069737 -40.8481172198359062 1.4251230940317710 124 108 82
-128.0443526546955297 68.1184325790877949 28.4033999291810488 0 7 0
-135.7787575845210029 205.5895846246407359 51.7752853805650375 52 63 57
-94.4513217339813167 108.3862953161943352 87.0667204273425597 40 49 58
-100.7385176732450986 230.0086959197982992 40.6997311850171286 75 91 80
-100.7184869620924133 230.1997012396973048 40.2800668801939921 75 91 80
-119.6194227541680704 221.5985590235202096 53.8933742573512617 60 69 68
-100.5993553393059869 229.8195124791127171 44.5200245298772117 11 20 29
-105.1989339135305528 200.5931384200491436 47.8227304733200427 7 8 13
154.0580646015332320 -41.1211802910235065 -7.1382410638160287 89 68 47
28.3825077247028865 191.2304631315320478 -0.2516013329300423 224 229 225
-141.2982420217269919 182.0460314020849921 59.2861297734309787 0 3 4
-140.9282365261834116 182.3016913891913759 59.1072318308039257 0 4 13
-83.0721825353287500 155.9773079712228707 49.9108648634758580 81 86 79
-117.5031762424843151 218.1088507073728806 50.2283057829391097 61 67 55
-5.8606676918220471 -18.6299432488598953 -0.1968847710311179 131 117 80
-138.8331585701738220 205.0001996290456816 65.5675637905903841 51 61 53
-85.9367105375176266 158.3396345248713999 51.0770816148306182 0 2 7
-147.5728727828514479 219.5914443114219807 57.2745219184078920 61 64 69
-87.4145817419295383 160.4212941142216664 51.8657455428175282 15 16 20
-84.8672009770487392 156.2851428930515283 51.6808840693776048 13 17 29
-11.5312706422221041 -12.7501549271954602 -0.0559589652714277 138 138 150
-74.6948602043561607 144.9073002661041301 41.5025777209010727 120 123 104
-104.5884543167441905 115.0827382891135784 92.6987709294045459 81 84 73
-39.2438442404935586 98.4031756654801768 -1.3927092040779590 161 139 92
-131.8642445757176347 196.2928823312244333 55.7492216153356424 65 74 71
-86.4722829495955096 156.6609866727643521 51.7036901345674238 88 98 90
-150.5042920266159001 196.9206571906665602 53.5227671271935534 25 24 32
-118.6379289188132020 217.8950722757688538 52.7093325504208963 17 21 22
-112.8169670982373844 197.1002989421389202 52.9848701395214192 1 0 2
-135.7985119230939688 199.7597894506937166 55.7869016869198546 0 2 1
-112.7888845993380471 196.9880088166226244 53.1698314493864643 0 0 7
-126.7247216735606230 228.4045038471183204 57.9991498065845121 58 68 69
-159.6597544935758890 207.4306481356116763 49.9168078150844323 0 0 4
10.1458207984126769 20.7761422156270150 0.0064947632385173 7 9 22
-154.0088243402212242 255.4846975164776950 18.2474295909992676 6 10 13
-139.8348859995145688 205.1845402776836238 51.5380334539454807 100 115 108
-140.1795991872681668 250.3758271661353660 51.1696350267617674 15 20 23
-139.8833947362888921 205.2817496793444434 51.7970798475140342 59 68 67
-154.4164445818469460 197.3423991207202448 55.8977527778974448 11 16 22
-124.6038013147923493 224.7629538691075766 55.6783121845877957 65 75 74
-85.4072657313912771 151.5319324524001274 53.4833317072866308 75 85 86
-41.9037209733228693 242.0322697847655604 -8.6050586037331396 147 148 143
-112.4397655271626206 67.3703960406842270 26.8217648571342195 83 94 36
-82.0820365861059855 145.2034571253962554 52.0856356075755187 66 72 72
-116.4462325161306069 69.9244521907009187 24.6708989108221530 12 14 9
-156.9182089221559124 192.3881243504844747 53.9339772482354931 84 93 88
-171.5872619849461671 224.6033432878966210 33.7632822273944413 29 30 35
-151.4188844701395738 219.4485258313930274 55.6792178183415061 55 64 63
-166.9396178621423417 140.9275891432336891 57.3665309647746753 18 19 24
-79.4709181931940520 108.5724024763327265 49.0458972537646787 103 110 94
67.4800848673088467 53.8956823866362029 -0.4860818336047756 209 219 220
-167.0721187770643894 139.4904640086757297 57.7071262368831981 19 22 29
-137.3928874405838769 196.9595140987534023 54.0033824564479730 6 7 11
-112.1386333835952485 206.3676378777128377 53.0507026459147610 54 64 56
-153.9312350510951148 191.4705474600600041 51.1046689288325240 0 1 5
-172.3400944749751318 221.5685447095376048 34.3885767577459092 8 16 18
-156.4385864717127390 193.9230852642626246 51.1047072295218285 0 2 12
-153.4471106857283189 219.1181362905144567 54.8514523559861971 45 60 57
-105.7733009350666435 193.6585593285851132 51.3887757082745225 74 81 73
-40.8117320939992680 188.3488191868603394 -4.9466393829560786 103 86 76
-93.5917985164873727 9.0511294257970931 84.7733804516814189 17 13 14
-41.1313763878603567 186.4754756142911845 -8.0750090014172038 147 150 139
-86.8462688808858303 78.9725690257109960 85.1509851279416807 16 26 35
-150.0579183871688258 94.2570024938267181 102.2525184078457983 90 96 94
-108.0976516865641628 196.7640368086634908 52.1531660794858780 73 78 72
-143.3954132357646927 201.7758671965900135 51.6593352924902547 44 57 50
-143.2951226875856605 201.2799718680398655 52.7816355702335187 63 75 75
-152.3077542888453308 95.2219775820479697 99.2084096408473073 65 71 71
-134.2829326782796215 59.2218920131254691 29.8764126217725696 11 14 7
-122.6560310805209042 217.1267937490921156 56.7901669361656403 0 0 5
-105.6206688563611209 92.9465647002246413 84.1129569771210015 93 113 104
-101.0959242575539321 236.1665890816379942 37.8030919354174557 6 6 6
-135.0079345003989033 235.0295168917961917 55.4631271858671155 6 8 21
-135.7737759856718469 47.1774140528067747 27.6004318366402437 113 128 59
-149.7339676095240293 156.9280561163647008 61.7570274412743672 4 4 6
-128.4335351760723256 224.9686171484026431 56.1809045247132133 59 59 57
-149.7608237940118840 75.0702564436189732 100.4787937384085410 122 124 121
-106.7110883050413577 237.0643848316722710 47.1082611031270986 0 6 8
-104.3500199721045476 188.8846695303403180 52.7036953206619501 16 20 21
-132.1153285597856382 119.8821926433765412 79.5691872109135545 0 3 3
-70.4947289940192832 25.9098833829537476 4.1676487709149708 93 85 66
-134.7657393173588787 -2.4825695139716708 93.2170828837097076 9 15 27
-15.7748018913091101 1.5580153963142365 -0.2851968629528301 101 110 117
-141.0681498498534552 183.0431766330972323 56.6851362595226789 66 76 68
-119.8643912077689180 251.7539772290492976 49.0993362664768398 5 9 12
-105.7169728263994699 62.7820923795158237 25.2290335760708579 0 4 4
-109.5279961253645098 221.6488695464956322 51.9031013066756728 51 61 53
-102.3872669836706564 210.3952653052439246 48.7452129633678268 74 75 70
-135.6586784102300385 104.1708357380920091 96.8626708152925318 0 2 5
-131.1639209634046495 164.7976761035069728 61.1572488846077746 13 12 17
-112.1287702616610176 196.6481260107168794 52.8630359935336713 72 85 75
-137.9826819841457564 102.6356672392168008 101.4516889259529790 0 1 10
-105.7477145358172663 214.4678950886406597 52.3141869780430042 0 0 4
-116.1791198698860086 201.7686033483377628 51.9244374913404130 62 71 66
-135.3996672302322679 228.6480353476426046 54.9915736714777950 70 74 73
-112.6457180588183320 221.2860196301535325 50.7219757247383072 11 10 15
-125.6523247556579008 211.9205175250890250 57.2997580873907282 64 74 73
-145.9163942665187221 93.4536763780008073 97.6590415479720519 85 91 89
-137.6835473644055128 228.2195277367731023 59.5734684174829781 58 58 66
-116.1805685302206683 196.2804459095068808 54.9566376844880367 63 74 68
-139.9392567904427835 93.7128768771616905 116.6948930697006972 18 27 42
-113.9694004515328913 193.1133879407523750 54.8331807390056909 66 73 65
-116.6820783952169478 220.1040482669712617 55.6872330236907942 0 1 5
-142.8476916137668979 235.0869660025703638 53.7817879966024179 66 71 64
-120.8087636465009922 36.5758556497177025 25.6660601868789904 69 81 31
-108.3253245185839688 201.1536167876747072 51.4599617245374645 55 67 65
-114.8028220038933682 209.3695723044015153 54.8606108710821445 45 54 51
-121.1984863290131074 213.9193568166227806 53.2903595698290857 70 82 72
-145.9939474510745470 247.9092481165444326 53.7580663204572460 24 24 24
-136.5366678030973446 231.5870681265089104 55.5933086287754037 3 9 21
-135.3016260587684485 226.0354265466204993 58.8684859257889030 52 62 53
-133.3440172446310328 217.3859507164223146 57.6729652643805792 12 10 13
-138.8189591481031187 220.6756804533350191 56.6947966747698473 71 77 75
-149.7976356547407306 232.2156905422063460 56.6840062871691117 8 10 9
-133.5780376951464916 219.5952232158287245 55.8847714743795834 4 8 9
-106.1048690124082441 71.1742463379517716 25.4316352887751691 43 57 21
-136.8142849950648383 110.7317240204705087 87.3096488116164977 38 44 44
-71.8800839769541540 115.3069256429185145 8.4516614214847845 160 159 139
-150.2139056746315191 218.4681340996269796 54.7832376279044908 8 12 15
248.6767244407108990 230.5346016206706850 -3.6069818884994729 55 39 26
-137.2326590318253352 259.4577548747121227 45.8563716190141051 153 151 68
-143.1621237332944645 95.8603862474502506 98.0491727252217231 32 37 40
-146.2835392714600289 100.1493664551488081 101.7034043358997621 10 9 14
262.3498302775597608 131.7140466564007113 -2.7447165984402093 127 108 94
-120.3433705112311998 129.8072087333720503 71.7298345932002093 79 90 73
-146.2373089555878494 215.0055362484797286 53.1104418973281156 53 57 56
-117.8592124509139154 98.0084850441876370 94.0001672254894771 47 53 53
-140.8960340056608231 102.0408255691606172 91.3166835592142263 16 16 18
-143.6507445549561339 103.1252348694544736 92.5849075008848388 0 5 9
-143.6507445549561339 103.1252348694544736 92.5849075008848388 0 5 9
-146.4936640723074674 104.7988698408228032 90.2453710463163929 28 33 36
184.8683508849509280 160.1703023192032731 -0.7828725899005280 184 193 192
190.5989410772218378 147.0887053790431480 -0.6573576997651082 33 42 41
184.9223254298830454 145.4632431570472022 -0.6825922953256892 183 193 192
185.2159409889118820 145.8090266691645809 -0.5009342496441443 198 209 205
209.8316820400208371 96.1823107150966621 -0.6209437250637163 210 219 218
179.6767439902665728 154.3011847455203167 1.6632740742502192 52 57 60
-154.4773471704912993 164.0459808355319922 67.9462053821980874 56 60 61
115.9709997143767737 29.0445193601007254 0.5797483459048093 213 218 221
-158.5919662986145511 151.0797021213486460 72.0963284860455502 40 56 53
-128.5087175225171450 128.4689240314167478 66.5563085653877096 6 12 12
182.9941888684555238 34.1725096195639608 -0.1635591282973833 24 28 27
-118.0756886678689028 224.7646104213480953 56.5428766267432792 58 67 62
-167.5707100855136105 230.8555169457836769 39.4438301818975603 6 6 6
-103.0971254245102671 189.1037591654879293 51.6341230411602794 97 103 99
-139.8640772692540395 199.6563815669300368 55.9014588137507431 0 0 8
-136.4068807307228610 229.8160356797638713 54.0836316798666488 72 75 66
-114.5980823142568568 221.5269343453823296 54.9800435672510304 0 1 5
-100.7644481458143986 206.9627631303043245 51.7982611961283155 0 0 5
-100.7644481458143986 206.9627631303043245 51.7982611961283155 0 0 5
251.3671774485220851 192.6646707658272248 -4.0652846820888433 137 121 88
-96.3306133916342304 203.0406749947340757 48.2086354483443813 11 18 28
-105.2319027115538432 209.6504230493928844 53.1345879314910476 0 1 10
-167.5262466158798418 73.4503600864671569 79.6731625863951365 20 21 25
-141.4432551035857557 -12.6405870396694695 59.8579679168034957 44 38 38
237.8996367930213296 192.6404235619628480 -3.5124120022548757 181 168 151
-96.4061767684308819 200.2003126536529010 50.3286663011980693 0 0 7
-96.5717864392321843 200.2077209558253514 49.7198337051190649 0 1 10
-122.0958063484541753 213.0827149991967531 51.5272141944427204 58 65 58
260.9546331658850704 161.2885288333025358 -5.5259443471210510 219 221 216
-109.5204168798757109 213.6029591163865859 54.0183185679040960 0 3 6
-177.3757538689065143 187.5582299222195672 37.0883503999653925 53 53 53
-145.0186352942149597 236.5316102568439760 57.9945212701118535 51 56 50
-116.1817194348923294 218.8353746836049822 55.2063118335273160 0 0 7
-145.5273792211724810 35.1039242190911764 -61.1803757742954986 136 145 128
-100.6618488335996062 202.7907486498554874 51.0421141755719887 1 3 16
-126.4060891596625567 217.5186127282441078 51.6430504206591792 81 88 80
140.2888123974330199 191.5579858009224949 -0.9354788043799747 224 225 220
-94.2782661454244959 194.4913843755756488 47.4730823163882718 10 9 17
261.4099880888837220 19.2379347035095947 -4.4015600092390565 205 210 203
-171.0825730529758459 165.7253451216201938 49.7764055257378644 6 11 17
-96.7197697348303933 200.5145689031300833 46.3453480300027181 0 2 6
-94.6353394180877530 195.4496159210655151 49.1130737422266392 67 73 73
261.4639194745905115 1.9186133040652409 -4.3990624670429295 197 208 202
-166.2301237834384438 197.9804707071361634 48.8490782820449638 0 0 4
-131.4729150880330621 231.5770997149749633 59.4072620422901139 54 59 52
8.9447989117260605 190.0892585126271683 2.2779504547578653 191 176 143
-162.6508429766463735 223.5052432665624735 46.9378569747680103 21 24 29
-163.2394216840988577 223.5642661758070346 46.4776165918099053 95 101 87
-56.4510353413248112 110.8903814509445027 12.2688452795951850 20 18 5
-117.0946502951840529 215.3330680202075200 56.3475289154176266 64 69 65
-155.9932623967183929 207.0267644777085536 52.3477751639030942 86 98 96
-137.4927219371280387 237.0331548129872772 58.6700867401263011 7 7 9
-142.9890966061621214 235.4792976414575492 52.6805888909671935 48 53 56
-95.5959459980430637 189.0122021376067778 49.9101171011605871 1 2 6
-129.8502927795969129 211.8213082276058401 57.5270719318464288 65 67 62
151.1348669067805588 58.2541354387994161 0.0110448135139456 190 198 200
-112.0963617299566835 193.0030770858122082 52.8477296014028752 21 26 30
-101.3621612431943362 197.2752884308102921 51.8127034866370551 77 82 76
55.2578946286599333 289.0974918691866264 -218.3543733479648949 175 147 100
-95.5963913078702490 184.3512245621567729 46.7656602900363083 79 89 80
-112.5160073249909516 92.5204808401736472 99.4956492683124054 9 13 16
-140.5376725238128301 223.3479843957292985 58.9236233113060450 0 2 1
168.6992958404020442 -40.3070519881353775 1.3988750581403502 159 129 77
139.4316260026307646 192.4329624822595122 -0.3423492564059283 191 177 150
-166.5340697112932276 130.6725221267108168 65.1213762173433963 2 4 16
-113.5613846172449968 220.6414232748864492 43.2046752198496193 69 79 70
-159.6749919274139700 188.3998317908441891 51.2748722263219392 86 95 90
-121.7408210497100356 203.4284116217020824 53.4898479574932821 0 1 6
-166.7913154020735362 134.0873098280068234 58.4955899916008164 7 10 19
-166.8050443305516239 133.9849953762935968 58.4453651353774433 24 26 38
-155.6239448581900149 140.2142931634118668 80.3551593438613594 61 61 53
5.9374910149210773 163.2941866889793232 -0.8576323875618115 31 37 27
-175.3006718021813697 159.3957885645653221 38.9976440383409440 0 2 7
-103.2133387410088261 186.9319862683803990 51.9248709000507276 71 82 74
15.8290505326998510 137.8602746590366621 -0.5702055212425203 11 3 14
188.0562707247728440 9.0040374933625831 -0.6518233652965044 8 2 6
139.3686676818506953 73.1870874111032919 -0.0587369000073845 43 48 42
-105.4053112309826901 200.3757460028067214 48.0780250139848206 0 0 5
-86.5272084302711164 63.0990098103425581 84.1092968000957342 7 6 12
-105.4053112309826901 200.3757460028067214 48.0780250139848206 0 0 5
-134.8066900097408904 223.3261730356748558 50.3833763036644129 61 65 66
-97.2763625670444583 185.4248833927737223 48.3613432461536377 87 87 79
-131.7238476634458380 117.3105128309948526 89.6162951495912665 61 73 69
-175.0329268360841581 197.0035801089458403 40.0158779042630570 7 5 6
-89.8711722267669302 164.9259503708823047 50.0320044190422664 6 9 18
-165.3709055025843213 96.4298028478968092 93.2391855006647177 1 2 7
-120.0443276920443481 196.7948947009504934 54.4442752180713399 87 93 89
-87.5721636664019343 174.7449709779713487 47.0066123402599132 0 0 9
-175.9402758191471321 192.7148030063495980 38.7983647969958270 0 1 2
-165.6580390333002697 185.4548279552624024 47.7169930884029725 8 9 13
-165.6580390333002697 185.4548279552624024 47.7169930884029725 8 9 13
-146.8997405834675192 223.2300993530502922 57.6169963879344564 0 1 6
33.6257719816721377 -41.1658547183581831 1.5658146872236005 167 135 88
-176.5334527315170021 188.5467129542952307 37.7540564968887864 12 13 18
-128.2833656422729405 199.8396621511902254 52.8811465248904540 50 63 54
-85.9708864238914714 45.7653264332045069 80.9435442205373192 81 90 85
-94.9759137869424137 119.2527148293745825 85.7991255963386266 77 78 80
-168.5611158652747861 191.1336421905841974 8.9245506426213215 64 69 63
-143.4071736789443037 219.9202679116137631 58.1738626915975345 64 70 68
-143.4071736789443037 219.9202679116137631 58.1738626915975345 64 70 68
142.3809982980787652 -40.0924910352850148 -1.3028820611314229 165 138 83
-174.4157643343776556 186.1599882790437448 36.0321230345723222 0 0 4
-150.0617367982491714 93.1727047042761001 109.4783287626312642 13 14 18
-171.8506629327715132 159.9527346779076993 57.3903121493120381 0 0 2
-133.0014807725387698 207.4984088265120192 53.5572453820747896 89 99 91
-114.7738129453427405 224.5346237614968175 54.7171574729762114 0 0 7
-114.7738129453427405 224.5346237614968175 54.7171574729762114 0 0 7
-133.1736148859008608 206.1559754376683600 53.5048625053228406 89 102 95
-100.3675516710503075 208.7150364163816789 51.3778783230840972 0 1 4
-121.3845509260277282 229.7999201112390892 56.5585956742967042 1 5 4
61.3010328360055610 210.8509394494120954 -0.7421537935218144 146 101 46
79.2197160065658039 30.6299899404618898 0.6007547968038262 47 56 51
-139.3280568071888297 203.2444527216477184 57.2916020922710558 0 0 2
-149.7676329423159984 223.2521927264645001 51.0163789646036321 3 6 13
-150.8122709223707432 223.9266813420148026 50.3783874550115485 38 55 39
-125.7295155894251764 228.4456628577285073 60.6439266633834748 56 63 55
-120.8264409826267638 225.9123172135281834 56.2644536753007714 0 0 11
-104.5482541581170040 205.7143062611139044 51.2930833092643965 62 70 59
-144.6260787386494542 203.0267715326651228 56.9695233440759594 54 58 61
-129.4288747644153830 234.2169822562228489 57.9552612525844495 56 62 60
-112.4723553417679085 209.9102907569369734 54.6853957162145718 73 79 65
-104.8827767866853833 200.1049362197273638 51.4416255194004890 0 1 5
-100.9319536297086302 193.7426060008901061 52.0173162369060762 89 100 96
-119.4107433691662408 212.3104062955036113 57.4877756273704890 64 66 65
-131.6357311736715303 224.4267614763986387 57.4603126891911060 0 1 5
-131.6357311736715303 224.4267614763986387 57.4603126891911060 0 1 5
-105.9746083030222934 193.5191898933360051 51.9970845740972507 68 84 71
-89.8833866911594441 226.0429452410168949 32.4202337117548893 54 53 59
-115.4879232477247086 224.9026771677897329 39.2107910455949593 5 3 6
-120.1246625583006704 211.9106768916400085 56.3136216149409634 0 0 5
208.5707755369484175 25.3913505841771077 -0.6263462190197147 23 27 26
-166.8956666587637017 51.2291033503707780 81.7338272472902503 99 95 83
-142.0873127494895982 97.8234696936207655 102.7769507163492335 70 71 65
-11.8768138778833414 191.9164207267823485 -1.1477060613121550 166 152 125
-149.4621258266892028 207.6341090462593115 56.8417040229344721 8 11 18
-135.1721926224538777 198.1205870261003952 55.3017418128639662 38 42 41
-135.1006961691646211 198.4185081851871075 54.9421355176367214 38 42 41
-95.9365969176464688 186.6988541671950088 49.4875642760678147 29 44 37
-131.0813176770655559 217.3626142443075935 56.7650815711995094 7 11 20
-144.6083509157341211 208.5552614309871728 52.3593240305008649 64 74 73
-142.8350416453169487 -9.8162554566957763 81.2981288301062079 76 80 66
-141.3871303086452542 -10.8868515105717965 79.8933798753646158 71 67 56
-119.7899911717211552 201.0222793084104467 55.7917035832038621 68 72 71
-88.6771504319442130 166.1964103096587451 50.1154734236325865 90 97 89
-104.0377413475361266 190.9299608141292310 51.8872036876808878 4 11 17
-128.7179381727714542 208.7719512228441374 57.9474648291332670 9 13 16
-104.0377413475361266 190.9299608141292310 51.8872036876808878 4 11 17
-166.2403690014330095 241.0785761314373872 36.8857079150665257 5 10 13
-145.3308643705456973 -12.5576421581533921 69.8306846945684185 69 72 61
-148.1298635396212831 99.5501302745484651 92.1131777803328760 56 60 61
-135.4876100952874367 216.6015132239961076 57.6765126104042238 0 0 4
-132.6839465813509094 212.2973153240826321 55.7594341695846225 4 11 17
-132.6839465813509094 212.2973153240826321 55.7594341695846225 4 11 17
-138.0815407226384082 -21.9210842731970494 65.4969524495239455 65 60 54
-174.9263701259946515 187.8964161518605920 38.8578471508168448 62 74 74
-137.0891575522685457 211.2017021916008730 56.6748307723006519 2 2 10
-146.3166985443444048 91.6764223367611919 100.5257997847766092 14 18 19
-147.0957088242831219 213.6181822247149285 69.2751963288143884 5 6 10
-113.9435692047920554 214.7152811262829175 55.0201464828265259 4 8 11
-170.1807688770281288 90.6137015688607477 123.1787598932639014 13 19 35
-148.1287669123662738 215.7995861070329511 56.8702607774820166 0 1 6
-166.0097405984055285 94.6633416049947982 98.6214423420551753 104 114 106
65.4173051884401957 112.1715639006358174 0.3365992493783700 204 213 212
65.4173051884401957 112.1715639006358174 0.3365992493783700 204 213 212
-164.5176260733402955 241.4985356127226908 37.7655505704615706 6 8 20
-156.2190771444864765 214.7833878538448289 54.3775288261938030 13 12 18
-164.0054785386204230 52.3856071686723581 76.9968607014076838 74 69 75
-149.9026431762690379 24.7716064754588849 81.2534023375713161 9 21 21
-122.2333600443717074 220.7158455777913844 55.3717497312773901 63 71 73
-97.6590233453996888 191.8035208923639914 51.7769614156475484 57 61 62
-126.8701500817553267 -15.1874949497678582 97.5755298449197568 82 83 77
-126.4739664675114312 -17.8198001361985128 93.8217335267228663 72 70 58
-137.8284986650527912 -5.2923467607835990 97.5617233707056073 45 46 51
-124.1349313886619541 215.6155497423397946 55.8605773663662148 40 48 50
-141.1931952123363487 -13.9142273188359891 77.5784054972882160 75 76 70
-131.5264829539365508 218.6131355134345711 58.4677230150931138 15 23 26
-131.5264829539365508 218.6131355134345711 58.4677230150931138 15 23 26
-112.7833199903330410 195.5097538733248825 53.6948882536844678 55 61 57
61.4164751322284985 145.3177481906575110 -0.0415459046949270 203 213 212
102.2955948735966984 27.4572972061281746 -1.1307781377612416 240 245 248
12.2098459222083360 145.7132445157106702 -0.6532086896268741 209 218 215
-167.0521562447247561 81.4544897968172421 101.7938346568632113 98 91 81
11.8626794276044372 105.7666525241883022 -0.0487308574860653 198 207 206
11.9024999917191412 105.6709889793662995 -0.0694976459012187 198 207 206
-164.9519517635314116 52.5184799983862902 75.7625526896333099 30 31 36
-130.4296226985018450 -17.8504875142240920 88.6218242471401112 68 78 67
207.7675666237842051 71.7740045973890943 -1.5870888033988189 241 247 247
14.3293520149009108 1.9054090325902022 -0.6751854150811141 30 28 29
31.6860989811200859 56.6909602290723527 0.9980243153099624 184 194 196
-158.5185961889420128 176.4081982423340094 57.3646710880627637 21 22 24
-169.2319874530031427 82.1273199613418257 75.2459646987313278 29 33 34
191.2794115091010667 138.7788701414673938 0.4134566262859209 31 35 36
183.8107419055897935 59.9207313780316611 -0.7940131339470909 20 25 19
138.5816010175388726 110.2144512302478034 -0.6356186826114256 45 49 48
34.6193420367505027 116.3080125183255689 0.1862127868320157 32 36 35
93.8703004051197638 106.4561187031077480 0.5680731010898888 50 54 53
203.5090326735641213 24.9615853095970657 0.2991288101325491 198 203 206
203.4993495123212881 24.8363980685942387 0.0377248434387148 198 203 206
-117.0989573440399028 175.4051654864786087 57.7935915091338046 3 3 3
94.4080664547151969 34.2495323617430500 0.5843036111629525 29 30 32
93.4493727636816658 27.2017789252289859 0.7159567298341647 24 28 29
4.3172707623846440 64.6684433456885586 0.2301029196329311 26 26 24
96.0258067339081549 19.2658149944292525 0.7037962041538396 196 204 207
49.8652292043992418 78.1195136792398444 0.8296850562023301 31 40 39
35.9978772060920633 100.8964526166919597 -2.8052052070647946 57 66 61
35.9978772060920633 100.8964526166919597 -2.8052052070647946 57 66 61
33.4461324973279872 92.8302662679689945 0.4357244945114800 29 31 30
-95.1776083846852714 112.7300700024207174 84.0099644532084113 56 57 52
-114.6089307023626560 231.6029539473230159 2.8956209875246262 95 108 101
-145.4636950630193724 209.3254104242762423 51.7057083578199439 1 2 7
-4.3171077913126128 545.8559332019726753 -14.1231000733953884 22 23 43
-122.1076629208095738 -36.0929043445676001 -22.1659350152184302 142 150 129
-107.8326926273077078 212.7534094808194993 50.4942355308593562 14 18 29
222.0781237077812023 -9.0676649462780361 -2.0331320665260604 213 221 223
-136.9217355270876908 203.5912610751163641 42.7622514213506690 9 4 8
-107.9359384051514041 75.1272337812057884 23.9480172441899128 79 93 44
-41.8245370021622378 166.7177525758410184 -5.7140519272327897 127 127 119
219.5648140210904842 129.4463662048621302 51.3344039666429097 190 190 192
-151.2813648812477254 219.2873186924190634 32.2769400921795366 77 79 78
-129.7849717687117277 214.0306462282854625 50.6121957443525048 59 64 60
-146.9668261704432553 205.3867222331861058 50.5421467021241213 0 1 9
-119.7296975554304055 224.9972809480747173 52.0256930109078795 54 63 58
262.6122792336681755 171.5562136050785966 -6.5401680006595573 135 127 125
-150.6413157865619610 221.9897839256519774 22.3234997485555873 70 83 76
-136.6773706492096494 238.2778602448209426 53.6846161549413168 53 58 52
197.8159960382466807 121.6751765058558590 -0.9447204243390998 247 255 253
195.9662674965171618 108.5856324008748999 -1.4434241126500535 20 25 29
-113.2290764837600960 222.7564680132921069 41.5324822136679330 0 2 6
-119.0705985226952635 217.5388407146880070 40.8536322085544015 10 14 17
-119.9263307417798359 221.5627395565265942 52.9911692784771091 67 79 67
-78.6403976826688336 67.8845402009461054 39.2756128364467045 45 50 46
-16.8049970574970722 222.9576860369900260 -107.7969141475627310 134 127 119
-39.9219032887185534 -14.5257356764837677 -7.7808372839788387 113 98 79
-140.1481982974308096 115.2924608661033261 102.3607992590877416 60 65 68
-98.2344159876858356 203.3561320248239781 48.0410834416929475 61 65 64
-116.9946075818923816 208.7379807292232385 55.4799415808732519 5 10 14
-121.1850904478292961 47.5994219163051397 25.3536053978910232 8 12 0
-137.3910180004319841 234.9971614938857840 54.5096193342547295 2 3 8
-137.2602737034554536 234.4169508051824948 55.7098904866588001 9 9 19
-118.0574057691397059 213.0627504378069546 54.4977050393587845 8 12 15
-132.5192394098309592 181.3995929328301031 60.1395083881726293 54 66 66
-121.8211408412557972 227.0572771375020125 41.8808807924374804 0 0 2
-40.6953155029839024 253.7311693644798538 -5.2377460361336130 170 145 104
160.9196154466651194 48.2119799593345277 -0.0500718711125252 41 40 35
-116.2045540983854437 196.8310631050131008 51.6034622493518640 79 88 83
207.6710186348157379 97.2126777997215896 -1.3732065973758816 204 212 214
-118.0757741214181777 228.8134506099615351 11.0018797935541564 97 107 99
52.8639489231339184 143.7349397076770856 -0.2738059025655036 3 14 34
-156.0839370185368864 218.2981978249926556 18.0170099297753126 62 68 68
-128.3066795604907497 228.8036272043542567 57.7400605435518486 59 69 60
-122.3050832309633478 208.8241257780769615 52.1886031545174021 6 7 12
-142.6823152140932791 91.9732529142273876 101.6335314068020210 94 104 105
-128.6873639608894564 201.9006019210115994 60.5494819793464245 72 82 81
-120.5782264768443355 199.9283785463082950 50.7813515673416518 66 79 72
-110.9292222505758758 247.7120929817830586 38.2584977511582593 14 19 25
-107.0332441115201334 194.7319631967613418 50.8677827846059074 13 18 24
-114.8007309336044273 244.8455365474640928 41.7468454166439429 61 63 60
-145.2786276269879124 197.6582244067560339 93.2885436137330259 59 65 65
-39.7981868741192528 117.8813844866164402 -1.4301335476323782 172 148 104
-129.5877591976025371 252.3677278137034534 49.2091212613079989 17 27 28
-158.1964157952283756 198.8755533339098633 53.8976920202789032 62 67 63
-128.5833975734369119 250.0809366426210829 50.1291204459720348 65 72 65
-138.8886251743732601 95.7061366888710410 107.5570554294663452 72 83 79
131.4571677422653408 -41.8157151982847424 -6.9859826989130376 97 76 55
-145.0820415529346405 180.5237971308944225 59.9067847438396797 54 69 66
63.1529214750634225 101.9280673756918958 0.1550134952887460 19 30 62
151.9550221752412540 94.5822829849694102 -0.4295066556939567 0 17 43
-127.9181018093429714 207.6618713786297121 77.7238393653751700 10 10 18
-118.5827597263159277 201.0584064088347986 52.9470225761101787 6 14 16
-137.0075201495042450 89.7343912864574804 108.4580651868723322 0 0 11
-124.4538128398118317 196.2509667161479854 52.6459562986220320 87 97 88
-157.8471329505115648 197.3576742049490349 35.4404040051445648 73 73 75
-133.5284329126355942 49.1718812290564884 27.8094484828606170 0 4 0
-111.7163910280823274 179.9642115073580442 56.4670760276828361 12 17 21
-134.8761653926293036 208.2905406707554050 53.4269377634875511 12 13 18
114.9158833503480395 23.3978096801470947 0.3929987938534430 38 43 36
-135.0693585037571438 208.6040378316983777 52.1910444394079747 12 13 18
-132.9031122351015597 200.0408988639759400 51.4699845377892515 54 66 56
79.4137869008923616 110.2141263605884518 0.1341898083663136 73 83 74
200.5471773952579611 74.6707434403040509 -1.0013624285686620 201 210 209
133.9879209433864560 44.7847134999091026 0.3761380654780790 57 51 51
-338.9586503226042282 96.8772172090398698 -14.9439911565589814 61 46 49
-338.9586503226042282 96.8772172090398698 -14.9439911565589814 61 46 49
-137.8011796987080118 254.1953356058969860 54.8436346088607607 166 167 161
-130.4447536220076813 235.0315667182343589 55.8022749345785485 19 18 24
-83.9713624757855115 168.7622079187071620 46.6028030220934113 25 34 39
-82.3369378885866183 207.5011210935643646 24.2161531350415018 8 7 13
-169.9873467583975639 229.6994876919868034 39.1177520787992918 31 42 36
-118.2780954807477372 154.5855128974313573 71.1762524374663315 23 28 31
155.4703450222129675 30.1978670295675862 0.1319453102343077 31 32 34
-158.4290122367843026 150.9690438300174833 71.5314956843759688 64 62 65
210.9507909534904115 27.7263469447997757 0.5421992746224886 23 22 18
47.0277402820167794 105.0356721613968460 -0.4109065822661222 34 43 40
-123.4137310935610401 268.6690697428551857 9.9318431871042652 76 85 80
-136.3196715154720096 250.0720873541151548 52.1751836226143908 66 71 65
-127.8335511095919230 35.9043858499433028 34.5361687324391653 0 1 0
-89.1631394682958529 151.8918742586261033 55.9505053750167534 17 21 20
-140.3618184946872418 107.4346385362736243 95.3607173004774182 51 57 55
-140.2246539616260179 107.4603059714283120 95.6013647633830033 51 57 55
-114.5302600476567108 99.1556368737019511 95.1515840480170567 20 16 53
-123.9816795290061435 199.8575949338045348 54.0621675753782611 68 74 74
-93.7829445430560895 195.2242841600639736 43.3438171445535403 86 91 87
210.6571154634901859 556.9561084266809985 -24.3591942320721166 29 25 39
-101.3603770231881214 200.5469102648603155 49.8773644113681911 82 91 88
-131.7459468489978462 40.9258454880983180 28.9641491650932501 81 94 41
-91.3627323961905375 141.1501500931748296 64.0935089453690381 0 0 7
-124.8496907527748050 196.8870441549431405 54.4243025007089472 3 0 9
-91.5269344020338025 142.7893154004219980 63.4839187402967369 23 26 31
-105.8715512442177982 210.5550181377733452 52.1109188366053360 49 66 56
-124.9884386290457172 196.6145848575781372 55.6618454966295957 85 94 93
-100.2258096373109595 197.4947793947433752 50.6951839021424391 15 15 23
264.4237474625266486 88.5102324847367896 -4.7157655135105010 134 121 102
-139.7954191138061333 140.5634020766804326 75.3466820085254767 3 7 6
-150.3897569919637647 202.7517991250279579 56.9609119918232167 53 55 54
219.3191902498384707 192.9127374537085586 -1.1137121711889049 223 220 213
-158.9371715443484163 189.4351773189385995 51.7679291099383363 97 106 101
-153.2146993931065140 171.3637946536888705 60.9381417931585077 0 1 3
-159.1061331705109296 186.7502989425665021 51.6105743047478214 68 70 69
-159.1061331705109296 186.7502989425665021 51.6105743047478214 68 70 69
-99.9619146079353129 189.0077306985745338 50.1094341705844926 27 27 37
-101.2211544293887471 188.4897962256058861 51.1648503673522583 69 75 61
-100.3408882570217742 188.8675909008184703 50.1724423939466249 4 7 14
-101.2394864649884454 188.1334419143633170 50.6702184293276048 69 75 61
-82.0040571644724139 142.0066349555372938 41.9378525257526107 1 0 10
-102.9363730421732868 193.8345179527482856 52.2568321576338377 83 95 85
-128.1522813127400582 181.6914042109594050 58.8765882238362437 76 73 66
-128.2242051695920395 181.5877104853700246 59.0964252565746193 76 73 66
-99.4424669856697108 184.9129151409832161 50.8619381692045422 0 0 7
-122.0074151606222870 144.2960485264700026 69.1174945099476759 63 73 65
203.0362295315534027 101.8995133209110548 0.2117365564635533 38 35 26
170.1923291101037989 -69.1192782057567996 -491.6204558229788972 51 47 36
-100.4297703322922217 187.5506352390266045 50.6753028846284650 65 66 60
-129.2846621310895046 201.9563601369875698 52.6460677693566694 0 7 13
-129.4952749086557731 183.7184233877513577 58.5445479781071185 23 20 29
100.3747115539364216 90.5964308673940195 59.5651414709626863 12 13 8
-130.4361852098848260 181.3752178314609864 59.2738431517180615 60 70 71
-114.2470781382649818 228.6602184807724427 54.1361408197673768 12 13 15
187.5319714962154478 -17.3500423129694354 -0.2257696853111371 125 106 74
95.6405375305218968 -18.1032268875855102 -0.5372510971026632 157 132 102
-138.3169131149099655 -3.6458474796148463 78.3102287364773559 130 137 121
-138.3169131149099655 -3.6458474796148463 78.3102287364773559 130 137 121
-171.5211059204807214 140.8103729950740615 43.4583497884510663 0 4 7
-118.9110985236844300 250.7331223121572634 46.0122053849895423 0 1 5
-171.5211059204807214 140.8103729950740615 43.4583497884510663 0 4 7
-115.5232242512107348 227.2380540870225047 54.2583826919994863 63 69 65
-130.3416643274356943 195.3300762642355721 55.3694793424853486 11 15 26
-117.4560146872982926 41.3383843680106366 28.0351273976861997 8 16 5
-117.6888781188275743 41.3437655219117488 24.8926330050356661 8 16 5
-126.8873323077458934 119.5045920551927310 85.2264633659990665 1 1 3
-153.8108336485786936 96.4023965461083208 97.1855605470113488 47 51 50
-137.3928874405838769 196.9595140987534023 54.0033824564479730 6 7 11
-139.2527023387612815 52.7063326801523289 31.3241669510870473 17 22 16
-131.9772923300043885 196.4175520241097956 54.9983690052585530 65 74 71
-120.7751845494642566 250.1617810497385506 47.4489375549370891 3 7 10
-143.7804904555261203 4.7935942346720202 74.5793976228430893 56 62 62
-108.6753047768369811 197.0629499609392212 53.1932013654701379 0 1 6
-102.9971454371956838 205.2450423874554701 52.4903671986003317 0 4 7
-126.9886085792463319 69.1051756303475315 28.0676939434411246 111 129 55
-114.7859140348258222 215.9244684643142875 54.2338827928981857 75 75 73
-118.3449506186943836 227.9038396917936211 53.4751391979713020 0 0 9
-100.2443206789074708 158.9655438306428152 60.4436780693064577 48 52 53
-154.3090128588687833 92.9600841851793831 98.0940048675136183 43 47 50
-122.5341064103951823 51.1065015759111745 27.2416679380843121 106 118 52
-132.5046826969070537 163.1297302088844390 63.8646865396094796 0 0 4
51.4661978085120211 -41.7798894653750494 -7.1101830502337222 59 47 31
-117.5969934170099407 36.9696963773806857 25.2947644613212361 7 12 8
-162.3089556512541378 158.0827430029386562 60.9758155578729841 24 27 34
-163.4228628653879696 179.7232950162229770 51.8474483691408636 70 75 71
-42.0028258388816482 200.5263472952550501 -5.6860239680645392 145 140 137
-41.4049997297793340 198.2886353909173920 -7.6620217751400350 138 137 133
-113.1614950193832101 206.2365875492195073 52.7850373712548375 1 0 2
-117.3711540748112725 26.3479748187781020 26.0086716741823878 1 13 3
-135.1714712095705693 164.1008104864461359 61.5798480377572730 3 7 8
-142.1087651827562297 -9.8674192621446508 55.9285632812851787 114 112 99
-101.5414147729705547 188.1331179842645440 50.9033584150293450 24 27 32
-125.8124914011762883 119.4198822529673407 84.8465022794352564 46 50 53
-120.6359207384586085 33.4280967002507481 25.6311127975394690 7 12 5
-120.6359207384586085 33.4280967002507481 25.6311127975394690 7 12 5
-131.0354873350382263 103.0530734658603649 95.3189384814160974 0 1 10
-92.6424374142835063 207.8867568222357818 46.9956013073821239 181 197 46
-147.5335495030198274 237.1429435521983180 54.6262648095254306 0 1 0
-133.0345141386843011 108.6594385723610259 95.2382878774002677 5 10 14
-140.0295420377612743 180.8764742471476552 60.0874857242451199 66 76 67
-112.8952323836273877 206.7207130944026687 52.3829709414791154 1 3 0
-113.8289580358746633 214.7298431015410358 55.1025387034345471 4 8 11
-134.6038929662075816 183.2206816401808283 59.4538583756914463 82 83 87
-101.2774036841789496 230.0164365663001718 46.9961127284999236 8 11 20
-133.8178185178574324 104.8810736537025861 99.0435844950964110 5 3 6
-143.8570815062447252 96.9152563485835827 104.0350440382936625 53 62 57
-120.5218374537136441 209.8733004824347859 51.8575711199227243 12 9 16
-132.7476743264329571 162.2172728999385356 66.6614185912961119 56 60 59
-118.9248368620715866 226.1112665435592248 52.7509519849742574 50 59 54
-144.6197793978584230 90.3175227738816346 104.0622182918248058 59 76 68
-129.6006711764754868 115.4188239794893462 88.7518605366342115 6 11 17
-134.1347623483051166 54.9472147898114471 28.9371275587398102 7 14 6
-130.8676600882651258 41.2389758200868428 26.2991506420411056 11 16 12
-169.6469975404610580 160.7842928781605849 51.6868514437753461 0 0 4
-111.6832164184318401 196.9180789534657094 53.1025738347547360 80 90 79
-156.3734443749389698 203.4874840985293645 51.8384169995274249 0 0 4
-132.8023932028521017 238.1290681412675951 55.6698499455355460 12 12 14
-126.3534827755033234 249.7421715444471317 50.9071968649317554 46 53 46
-120.3415899425081790 220.6897195088554895 54.9031727432385637 0 0 4
-109.4771575274531870 221.3242667304963618 24.6776089288227389 5 6 11
-127.8286567821695456 227.6999204990523253 55.6976105986206633 4 9 15
-134.1228441343608893 193.6141184047230581 99.8299007204475970 97 107 106
-135.9166858498986414 105.1348998576789597 98.8762911308442227 15 16 21
-147.7256744987291768 89.8697815556964201 103.8857958175810836 64 73 72
-136.0211047210646029 -11.7193198227443709 67.3143461283109588 83 84 79
-115.8693035317404139 204.1395909491745897 50.7315879482895227 62 60 63
-136.0794109418125402 108.2692278091389824 95.4099557716309192 63 67 66
-142.8227070529662512 181.5214675958501118 58.4381966475561825 0 1 16
-142.9383480444840586 181.4007822157524004 59.0951868381692549 0 1 16
-179.7883455398915089 180.6021753060666697 6.7276992097775850 163 167 150
-136.3365534721246490 116.9975756001930307 87.9253551400788353 1 0 5
-111.6556663268394658 175.4367396973816255 57.9641988527713607 6 14 17
-151.4018268745772673 216.8126408654608781 52.9828169769363484 0 4 6
-127.9033934149120455 234.7292166248043941 55.4598043917234094 10 15 18
-128.2737245281244896 234.6489928220059653 54.2627431168637244 0 3 3
-127.3595264163484586 231.6821246795241507 56.0791394214950856 14 18 21
-151.0615621974029352 9.1673600524140113 64.5877094982511295 118 124 110
-116.2143084666464290 42.4514074080629129 26.6026038782586411 81 103 39
-101.2496349624300223 53.4374716638650469 28.7067756180720544 63 67 32
-100.7625791572989868 53.3550857732340447 27.0114813524749273 63 67 32
-116.5514801368119606 40.3008525479006821 27.0750983770089846 89 102 56
-118.2670553774741791 40.1684632068687506 26.5864842195791731 124 138 77
-135.7721442135873531 227.1835931691875317 56.8507679324249011 1 4 9
-119.0416281226455197 42.2883841245202916 25.4643560798235526 77 98 33
-119.5279250684875052 42.4402737850139005 27.0132982915057873 4 16 6
-95.8096421539759717 68.9102794354089525 63.9622563713822672 45 60 55
-95.8096421539759717 68.9102794354089525 63.9622563713822672 45 60 55
-148.3605090283643335 166.4699791275120617 59.7358554143063500 45 53 64
-87.0848509619118971 173.3807356938355326 46.8035116997077338 0 0 5
-121.1539355421886626 34.7687005780901259 26.8668188970987032 102 115 71
-86.5898710348790388 166.2343188599056418 48.6722875440497234 18 25 33
-86.5984001778494843 166.1398221996960558 49.6480947290085410 1 0 5
-120.6794927210763859 31.4100873304129777 28.3698453531700459 112 126 64
-129.1783987154252031 210.5508779355247668 73.2555966057430936 88 98 99
-165.3513275416198667 137.5259508249047258 61.7655822816607696 4 0 3
-165.3513275416198667 137.5259508249047258 61.7655822816607696 4 0 3
-121.4692134907451617 196.6669547031512764 53.9957167778720404 72 85 75
-99.2084740781636754 200.7037401845309148 49.9224728396657156 70 76 76
-113.1718133195145839 95.9360302026710912 93.5087280711002222 20 10 44
-141.2666709696705425 -12.2927589152728522 80.9111499347879999 77 78 70
-149.6821800839623506 219.2438678432617678 57.5620850352043405 63 67 66
-147.6350559908772482 216.2628411600059337 54.8998381839759162 16 15 21
-132.8960476101493384 -16.4213546585500403 68.0068788141109621 106 110 95
-119.6848998276580005 51.5801637877654642 26.8138506783787278 13 21 10
-143.7332470384050680 0.3192069282663308 70.2409275276655336 124 130 120
249.8684176426819761 231.6650151401940434 -4.2062388732753062 43 31 19
249.4337570774430333 231.3894877067933464 -3.3366847927389833 43 31 19
-138.6622392874722607 -12.0050876382775709 62.5498512963846736 104 107 96
-141.2326752458106967 232.2124115883911202 58.0920195771360355 1 0 0
238.7275997991472138 243.4188962819402491 -4.3082496030833726 27 17 7
-149.6303842659275460 218.7239587168882338 54.0634892579762152 0 1 10
-126.7891959224199212 216.2857371577467234 56.4239045615001231 0 0 9
-136.7812485483033811 100.5361749080864513 102.7677956931106422 49 51 48
-133.4396372806923239 219.9687750186183735 56.9129412360684341 0 0 4
-169.6156818668974040 163.4970433199522688 49.4177403370931358 25 29 30
-151.0864754508146177 215.3948883206573157 55.0832598717339224 3 3 13
-147.6700516277049644 197.5635869085812999 54.9513676969565807 58 58 60
-147.7093340724761106 197.4957538406171977 54.8251752648559645 58 58 60
146.8884635404451160 21.4663134865168033 -1.2154036092973934 47 48 50
-145.2315778817041689 168.2628202804276611 58.8923759951880683 27 35 37
-163.0115596876368329 53.1844874354014436 80.8509591894239463 97 99 86
-141.9918937172596713 225.3298559510712380 56.0170244643559840 1 0 8
-134.7244727200817351 195.4633109764305630 56.2109169370969113 12 23 27
186.8529411936278279 30.5538330636243245 -0.3249697805829151 14 20 18
-146.4113893725548792 89.6448725293642354 104.9765616954633884 21 18 25
-150.3719464789105587 93.9967665095246332 102.0845974938600875 5 7 6
-161.9683588376344403 197.9240128608044245 50.2274941118863723 4 9 15
-118.3652077943263947 47.3904539783337384 26.7991612403404211 123 137 75
-160.1021142318530792 140.5192987596792875 70.9793680752364935 0 1 0
-119.2988027757448179 39.1406057074296712 26.8409012395635820 21 23 20
-119.1653008889687584 39.1483677156688756 26.6936382503368215 21 23 20
-125.8335687352701342 -16.0134927565352569 79.6735589049694113 102 108 98
-117.1636469007946744 44.3253838307156087 27.3836319460214987 10 16 16
-131.2591930887160743 42.9498748626010922 27.3261228626827020 106 119 49
-121.5076712582944367 53.0421268042410574 26.7726812950341255 95 112 32
6.8430667283454181 160.0282777068211999 -0.7611467640543012 209 218 217
213.1569238858302242 136.2505642719658852 -0.7584171020126828 17 17 15
205.3744256316059875 15.9608850379202867 0.9514476252180628 28 37 36
6.7555343058456829 110.8490653567136803 -0.4675803171229727 203 215 215
56.5178611822134727 52.0277204823528692 0.9268222501917914 31 33 32
-119.0388811562766875 33.0984860473048599 27.1486208619925904 54 65 23
56.7511421052316578 30.9802391049486836 0.7538914696715796 24 33 30
-107.1485008104343848 142.3150462475050517 73.7550476803923374 50 62 60
3.3515934585574723 35.8377701303620739 -0.4047824790981545 26 31 27
-156.8151517668496808 137.3881987288616813 74.5806376839746150 75 86 82
117.9456180919168702 11.7930949686397337 1.5871215975232886 206 216 217
195.4434312810651591 113.9619339566940681 -0.4696692896185565 20 21 23
-100.3588454219013641 157.6140988288049130 61.0846523068334619 23 24 18
-100.3311594900805659 157.4698152409691829 61.0900660554071635 23 24 18
-98.2809573724588574 140.0532112100125062 69.2043053293686086 27 27 25
-107.6500512058950818 196.5959937722782627 52.2625640273520204 73 78 72
-113.4928552205095116 94.9194351598875983 95.9100947434270665 94 104 95
-84.7877656157832433 164.4638600757819802 47.3004092989342482 79 91 87
-168.8458628785763267 88.7118509510043083 101.0151569685847335 0 0 2
-136.2976619607910322 183.8099646601116888 58.1213281376121387 65 74 69
-139.7218094821403156 103.9185041967747196 95.5598397175993028 13 10 17
-118.9092436596100697 246.4175051265028742 47.1227903282103355 60 72 68
-84.1140755609578719 134.8996453067391030 59.4816292439555738 136 141 121
-118.8107139141461914 96.7152118863226207 98.6030850849118963 21 20 34
-85.1858959057272500 129.0726086964189392 70.9092767921941487 104 106 93
-87.4085499741723027 157.8549008857359297 53.2985808608780331 73 84 76
-87.0594985299726858 155.7600591467703737 53.6627806592936309 73 84 78
-108.7397228766214141 141.0710055309340021 73.7918759844636298 3 7 8
-115.2740651735641393 182.1457122903573236 56.0516796863825419 81 92 86
-120.5739874520742774 98.7446581613669565 99.1227706827231003 1 7 41
-127.9762865089269326 164.2907491723692317 61.6834017145967906 55 64 63
-96.9925442534128308 200.5052044377773939 50.3692842987064395 75 77 72
-75.7398870789025267 118.6305046886258623 26.3771043092325179 43 48 51
18.8973416236412959 67.4299131138855472 0.6755951095993892 191 200 197
-144.5134022499855746 102.2487837797276313 98.1680774204273519 2 2 10
-130.8594233291765647 162.2015950433712987 70.6227886192594099 62 71 70
-96.0653355355647705 181.9794323814882375 47.9175439123813121 36 35 43
-133.7710956923486094 184.7708472655694436 56.5200699467221668 6 13 19
-83.0912543175441130 97.0790103377843394 70.8539582602280689 99 106 90
-108.4951176987341768 156.7224960076011371 65.6686535374124389 78 84 72
168.8986099826060752 539.0174206977311542 -1.6760486483655364 118 116 117
-168.4977357469152537 237.9016416129849176 32.6954162574287963 118 117 112
-115.8635564538558356 200.1149352416097713 51.3749060977111540 66 70 71
-133.2070509088253516 137.4471803920508250 71.2548854537802185 70 75 69
-146.4274642262843713 231.7173069703583508 56.0667070212260370 71 76 69
-147.3302286288433436 90.5169491753930515 106.9509360884422335 5 3 8
-71.2299687603533442 20.5263962218676070 3.3787773744658938 59 74 67
-134.7153365127811924 161.9430201295027700 64.7728889286766503 1 6 9
-100.1376708106249254 208.7242810725035156 51.5988965364467731 28 32 35
-65.1213362962435127 148.9336118889637248 -0.2311906579443454 32 25 17
-128.3729817271946274 249.6502310551779829 50.6186566405495952 49 52 57
-129.9312449403161907 199.2476245868665785 51.8085052801820822 13 18 21
-151.7296840785606378 98.1448203913176656 96.0989099117535943 0 0 5
-100.7447664148486979 185.6190712658501241 52.1646808423235555 68 74 70
-89.4582177155005240 196.5508856454497675 1.4540267828135005 0 0 5
